# .PCD v0.7 - Point Cloud Data file format
VERSION 0.7
FIELDS x y z
SIZE 4 4 4
TYPE F F F
COUNT 1 1 1
WIDTH 1702
HEIGHT 1
VIEWPOINT 0 0 0 1 0 0 0
POINTS 1702
DATA ascii
6.9577999 -4.3295002 -1.1493
6.9573002 -4.3351998 -1.1497
6.9584999 -4.3389001 -1.1501
6.9548998 -4.3425999 -1.15
7.335 -4.7423 -1.2256
7.3340998 -4.7449002 -1.2257
7.3302999 -4.7487998 -1.2256
7.3269 -4.7498999 -1.2253
7.3108001 -4.7456999 -1.2230999
7.3105001 -4.7487001 -1.2233
7.3130999 -4.757 -1.2243
7.3095999 -4.7579002 -1.2239
6.9477 -4.5648999 -1.1667
6.9446001 -4.5657001 -1.1665
6.9425001 -4.5703001 -1.1666
6.9408998 -4.5723 -1.1666
6.9397001 -4.5778999 -1.1669
6.9375 -4.5797 -1.1668
6.7424998 -4.8593998 -1.1682
6.7472 -4.8659 -1.1693
6.7505002 -4.8745999 -1.1704
6.75 -4.8773999 -1.1706001
6.7375998 -4.8747001 -1.169
6.7346001 -4.0075002 -1.1034
6.7308002 -4.0081 -1.103
6.7312999 -4.0139999 -1.1035
6.9197001 -4.2315998 -1.1424
6.9236002 -4.2372999 -1.1433001
6.9232998 -4.243 -1.1437
6.9218998 -4.2449999 -1.1437
6.9169998 -4.2477999 -1.1433001
6.914 -4.2488999 -1.1431
6.9120998 -4.2536001 -1.1432
6.9106002 -4.2557001 -1.1432
6.9723001 -4.3204999 -1.1554
6.9661002 -4.3228002 -1.1549
6.9594998 -4.3305001 -1.1547
6.9587998 -4.3361001 -1.1551
6.9583998 -4.3386998 -1.1552
7.3340998 -4.7417002 -1.2309
7.3351998 -4.7456002 -1.2314
7.3292999 -4.7481999 -1.2309
7.3271999 -4.75 -1.2308
7.3125 -4.7467999 -1.2288001
7.3098001 -4.7481999 -1.2286
7.309 -4.7543001 -1.229
7.3062 -4.7556 -1.2288001
6.9487 -4.5682998 -1.1724
6.9424 -4.5702 -1.1718
6.9440999 -4.5743999 -1.1723
6.9445 -4.5811 -1.1729
6.9405999 -4.5816998 -1.1725
6.7455001 -4.8646998 -1.1742001
6.7491999 -4.8736 -1.1754
6.7494998 -4.8769999 -1.1756999
6.7329001 -4.0064001 -1.1056
6.7280002 -4.0064001 -1.105
6.7304001 -4.0135002 -1.1058
6.9239001 -4.2342 -1.1456
6.9236002 -4.2372999 -1.1458
6.9194999 -4.2406998 -1.1456
6.9187999 -4.2431002 -1.1457
6.9166002 -4.2474999 -1.1458
6.9141998 -4.2491002 -1.1456
6.9109998 -4.2529001 -1.1456
6.9720998 -4.3204002 -1.158
6.9682002 -4.3242002 -1.1578
6.9587002 -4.3299999 -1.1572
6.9598999 -4.3368001 -1.1578
6.9594002 -4.3393002 -1.158
7.3347998 -4.7420998 -1.2338001
7.3358998 -4.7459998 -1.2342
7.3297 -4.7484002 -1.2337
7.3271999 -4.75 -1.2335
7.3143001 -4.7479 -1.2319
7.3084998 -4.7473998 -1.2312
7.3079 -4.7536001 -1.2316
7.3067002 -4.756 -1.2316
6.9426999 -4.5704002 -1.1745
6.9432998 -4.5739002 -1.1748
6.9436998 -4.5805998 -1.1754
6.9414001 -4.5823002 -1.1753
6.9450002 -4.5904002 -1.1763
6.7452998 -4.8645 -1.1768
6.7477999 -4.8726001 -1.1778001
6.7487998 -4.8765001 -1.1782
6.7312999 -4.0054998 -1.1102999
6.7287002 -4.0068002 -1.11
6.7315998 -4.0142002 -1.1109
6.9264998 -4.2357998 -1.1512001
6.9224 -4.2364998 -1.1507
6.9196 -4.2407999 -1.1507
6.9201999 -4.2438998 -1.151
6.9706001 -4.3193998 -1.1629
6.9657998 -4.3313999 -1.1633
6.9584999 -4.3298998 -1.1623
6.9624 -4.3383002 -1.1634001
6.9608002 -4.3401999 -1.1634001
7.3365998 -4.7433 -1.2395999
7.3369002 -4.7466998 -1.2399
7.3299999 -4.7486 -1.2392
7.3278999 -4.7505002 -1.2391
7.3192 -4.7511001 -1.2381999
7.3076 -4.7467999 -1.2365
7.3087001 -4.7540998 -1.2372
7.3060999 -4.7556 -1.237
6.9454002 -4.5721998 -1.1801
6.9447999 -4.5748 -1.1803
6.9446998 -4.5812001 -1.1808
6.9432001 -4.5833998 -1.1808
6.9428 -4.5889001 -1.1812
6.9436998 -4.5924001 -1.1816
6.7445002 -4.8639002 -1.1819
6.7481999 -4.8729 -1.1831
6.7474999 -4.8755999 -1.1832
6.7298002 -4.0044999 -1.1125
6.7282 -4.0064998 -1.1124001
6.7298002 -4.0131001 -1.1131001
6.9236002 -4.2340002 -1.1532
6.9211998 -4.2357001 -1.1531
6.9205999 -4.2413998 -1.1533999
6.9175 -4.2423 -1.1531
6.9696002 -4.3188 -1.1653
6.9664998 -4.3318 -1.1659
6.9582 -4.3295999 -1.1648
6.9611001 -4.3375001 -1.1658
6.9608998 -4.3403001 -1.166
7.3369002 -4.7435002 -1.2424001
7.3365998 -4.7465 -1.2426
7.3304 -4.7487998 -1.242
7.3262 -4.7494001 -1.2416
7.3189998 -4.7509999 -1.2409
7.3069 -4.7463002 -1.2391
7.3067002 -4.7528 -1.2395999
7.3045001 -4.7544999 -1.2395
6.9493999 -4.5748 -1.1834
6.9452 -4.5749998 -1.1829
6.9454002 -4.5816002 -1.1835001
6.9436002 -4.5837002 -1.1835001
6.9432998 -4.5892 -1.1839
6.9425998 -4.5917001 -1.184
6.7438998 -4.8635001 -1.1844
6.7480998 -4.8727999 -1.1857001
6.7484002 -4.8762002 -1.186
6.7294998 -4.0043001 -1.1173
6.7258 -4.0050001 -1.1169
6.7280002 -4.0120001 -1.1177
6.9221001 -4.2330999 -1.1581
6.9225001 -4.2364998 -1.1584001
6.9214001 -4.2417998 -1.1587
6.9686999 -4.3182998 -1.1703
6.9632001 -4.3297 -1.1705
6.9589 -4.3301001 -1.1701
6.9642 -4.3393002 -1.1714
6.9617 -4.3407001 -1.1712
7.3369999 -4.7435002 -1.2479
7.3343 -4.7449002 -1.2477
7.3305998 -4.7488999 -1.2476
7.3245001 -4.7481999 -1.2467999
7.3209 -4.7522001 -1.2467
7.3067002 -4.7462001 -1.2445
7.3060002 -4.7522998 -1.2449
7.3038001 -4.7540002 -1.2448
6.9478002 -4.5767999 -1.1885999
6.9454002 -4.5816002 -1.1887
6.9454999 -4.5848999 -1.189
6.9446001 -4.5900002 -1.1892999
6.9442 -4.5927 -1.1895
6.7393999 -4.8601999 -1.1888
6.7473001 -4.8722 -1.1908
6.7487001 -4.8762999 -1.1913
6.7291999 -4.0042 -1.1197
6.7245002 -4.0042 -1.1192
6.7273002 -4.0116 -1.1201
6.9225001 -4.2333002 -1.1607
6.9221001 -4.2363 -1.1609
6.9208999 -4.2414999 -1.1611
6.9685001 -4.3181 -1.1727999
6.9626002 -4.3294001 -1.173
6.9604001 -4.3309999 -1.1729
6.9632001 -4.3388 -1.1738
6.9626002 -4.3413 -1.174
7.3371 -4.7435999 -1.2506
7.3333998 -4.7442999 -1.2503
7.3305001 -4.7487998 -1.2503
7.3242002 -4.7480001 -1.2495
7.3202 -4.7516999 -1.2493
7.3070002 -4.7463999 -1.2473
7.3049002 -4.7515998 -1.2474999
7.3031998 -4.7536001 -1.2474999
6.9516001 -4.5792999 -1.1919
6.9456 -4.5818 -1.1914001
6.9436998 -4.5837002 -1.1913
6.9452 -4.5904002 -1.1921
6.9442 -4.5927 -1.1921
6.7372999 -4.8586001 -1.191
6.7466998 -4.8716998 -1.1933
6.7483001 -4.8759999 -1.1938
6.7273002 -4.0029998 -1.1243
6.7259002 -4.0050001 -1.1243
6.7245998 -4.0100002 -1.1246001
6.9245 -4.2344999 -1.1661
6.9229002 -4.2367001 -1.1661
6.9215999 -4.2419 -1.1664
6.9703999 -4.3192 -1.1783
6.9612999 -4.3284998 -1.1779
6.9624 -4.3322001 -1.1784
6.9640999 -4.3393002 -1.1791
6.9645 -4.3425002 -1.1794
7.3379002 -4.744 -1.2563
7.3340998 -4.7448001 -1.2559
7.3278999 -4.7472 -1.2553
7.3252001 -4.7486 -1.2551
7.3197999 -4.7514 -1.2546999
7.3045998 -4.7448001 -1.2524
7.3038001 -4.7508001 -1.2528
7.2954001 -4.7486 -1.2516
6.9468002 -4.5825 -1.1968
6.9454002 -4.5847998 -1.1968
6.9439001 -4.5896001 -1.1971
6.9482999 -4.5953999 -1.1981
6.7472 -4.8720002 -1.1986001
6.7472 -4.8751998 -1.1989
6.7272 -4.0029001 -1.1267999
6.724 -4.0039001 -1.1265
6.7245002 -4.0099001 -1.127
6.9246998 -4.2347002 -1.1687
6.9218998 -4.2361002 -1.1684999
6.9208999 -4.2414999 -1.1688
6.9692998 -4.3185 -1.1806999
6.9615002 -4.3287001 -1.1806
6.9617 -4.3318 -1.1808
6.9654002 -4.3400998 -1.1819
6.9653001 -4.3429999 -1.1822
7.3378 -4.7438998 -1.2589999
7.3344998 -4.7449999 -1.2587
7.3288999 -4.7477999 -1.2582
7.3255 -4.7487998 -1.2579
7.3193998 -4.7512002 -1.2574
7.3027 -4.7435002 -1.2548
7.3032999 -4.7505002 -1.2553999
6.9478998 -4.5832 -1.1996
6.9468002 -4.5857 -1.1997
6.9446998 -4.5900002 -1.1998
6.9481001 -4.5952001 -1.2006
6.7459998 -4.8712001 -1.201
6.7473998 -4.8754001 -1.2015001
6.7248001 -4.0015001 -1.1313
6.7220001 -4.0026999 -1.131
6.7203999 -4.0074 -1.1312
6.9243999 -4.2343998 -1.1738
6.9217 -4.2360001 -1.1734999
6.921 -4.2416 -1.1739
6.9681001 -4.3178 -1.1856
6.9617 -4.3288002 -1.1857001
6.9622002 -4.3319998 -1.1861
6.9668999 -4.3410001 -1.1873
6.9678998 -4.3446002 -1.1878
7.3381 -4.7441001 -1.2645
7.3333001 -4.7442002 -1.2640001
7.3263001 -4.7460999 -1.2632999
7.3264999 -4.7494998 -1.2636
7.3196998 -4.7512999 -1.2629
7.3018999 -4.743 -1.2601
7.3000998 -4.7484002 -1.2604001
6.9506001 -4.585 -1.2053
6.9464998 -4.5854998 -1.2049
6.9447999 -4.5900998 -1.2051001
6.9461002 -4.5939002 -1.2055
6.9457002 -4.5999999 -1.206
6.7466998 -4.8716002 -1.2063
6.7476001 -4.8755002 -1.2068
6.7248001 -4.0015001 -1.1338
6.7213998 -4.0022998 -1.1334
6.7205 -4.0075002 -1.1337
6.9243002 -4.2343998 -1.1763
6.9211998 -4.2357001 -1.176
6.9215999 -4.2419 -1.1766
6.9689999 -4.3182998 -1.1884
6.9612999 -4.3284998 -1.1882
6.9618001 -4.3318 -1.1885999
6.9679999 -4.3417001 -1.1901
6.9677 -4.3443999 -1.1903
7.3379998 -4.744 -1.2672
7.3330002 -4.744 -1.2667
7.3277998 -4.7470002 -1.2663
7.3264999 -4.7494001 -1.2663
7.3197999 -4.7514 -1.2657
7.3006001 -4.7420998 -1.2625999
7.2990999 -4.7477002 -1.2629
6.9463 -4.5853 -1.2074
6.9439001 -4.5895 -1.2075
6.9459 -4.5938001 -1.2081
6.9450002 -4.5995002 -1.2085
6.9487 -4.6047001 -1.2094001
6.7480998 -4.8726001 -1.2092
6.7474999 -4.8754001 -1.2094001
6.7227998 -4.0002999 -1.1382999
6.7198 -4.0014 -1.1381
6.7212 -4.0079002 -1.1387
6.9240999 -4.2342 -1.1813999
6.9222002 -4.2363 -1.1813
6.9208999 -4.2414999 -1.1815
6.9689999 -4.3182998 -1.1935
6.9633999 -4.3298001 -1.1938
6.9628 -4.3323998 -1.1939
6.9664998 -4.3407001 -1.1950001
6.9675002 -4.3442998 -1.1954
7.3369999 -4.7434001 -1.2726001
7.3332 -4.7441001 -1.2722
7.3270998 -4.7465 -1.2716
7.3257999 -4.7490001 -1.2717
7.3214998 -4.7525001 -1.2715
7.3010001 -4.7424002 -1.2682
7.2975998 -4.7466998 -1.2681
6.9541998 -4.5904999 -1.2141
6.9453001 -4.5904002 -1.2130001
6.9454002 -4.5935001 -1.2133
6.9466 -4.6005001 -1.214
6.9459 -4.6029 -1.2141
6.7463002 -4.8713002 -1.2141
6.7469001 -4.8748999 -1.2145
6.7220001 -3.9998 -1.1407
6.7199001 -4.0014 -1.1404999
6.7210002 -4.0078001 -1.1411999
6.9240999 -4.2342 -1.1839
6.9219999 -4.2361002 -1.1838
6.9211001 -4.2416 -1.1841
6.9625001 -4.3291998 -1.1962
6.9635 -4.3327999 -1.1966
6.9668999 -4.3410001 -1.1977
6.9664998 -4.3435998 -1.1978
7.3372002 -4.7435002 -1.2753
7.3330002 -4.744 -1.2749
7.3283 -4.7473001 -1.2746
7.3257999 -4.7490001 -1.2744
7.3228002 -4.7533002 -1.2744
7.3003998 -4.7419 -1.2708
7.2965002 -4.7459998 -1.2707
6.9463 -4.5911002 -1.2158
6.9446998 -4.5929999 -1.2158
6.9461002 -4.6002002 -1.2165
6.9450998 -4.6023002 -1.2165999
6.9464002 -4.6093998 -1.2173001
6.7456999 -4.8709002 -1.2165999
6.7466002 -4.8747001 -1.2171
6.7209001 -3.9991 -1.1454
6.7171001 -3.9998 -1.145
6.7150998 -4.0043001 -1.1451
6.9232998 -4.2336998 -1.1889
6.9214001 -4.2357998 -1.1888
6.921 -4.2414999 -1.1892
6.9653001 -4.3309999 -1.2018
6.9645 -4.3334999 -1.2019
6.9657001 -4.3401999 -1.2026
6.9665999 -4.3436999 -1.2029999
7.3347998 -4.7419 -1.2804
7.3316998 -4.7431002 -1.2802
7.3281999 -4.7472 -1.2801
7.3248 -4.7483001 -1.2798001
7.3249002 -4.7546 -1.2803
7.3013 -4.7424998 -1.2764
7.2972002 -4.7463999 -1.2763
6.9489999 -4.5928001 -1.2215
6.9461999 -4.5939002 -1.2212
6.9459 -4.5999999 -1.2217
6.9453001 -4.6023998 -1.2219
6.9450002 -4.6083999 -1.2223001
6.7452002 -4.8705001 -1.2217
6.7463999 -4.8744998 -1.2223001
6.7315001 -4.8699999 -1.2201
6.7203002 -3.9988 -1.1477
6.7154999 -3.9988 -1.1472
6.7158999 -4.0047002 -1.1477
6.9238 -4.2340002 -1.1914999
6.9218998 -4.2360001 -1.1914001
6.9215002 -4.2417998 -1.1919
6.9653001 -4.3309002 -1.2043999
6.9653001 -4.3339 -1.2046
6.9665999 -4.3407001 -1.2053
6.9667001 -4.3436999 -1.2056
7.335 -4.7420001 -1.2832
7.3330002 -4.7438998 -1.2831
7.3276 -4.7467999 -1.2826999
7.3248 -4.7481999 -1.2825
7.3256998 -4.7550998 -1.2832
7.3000998 -4.7417002 -1.279
7.2951999 -4.7451 -1.2786
6.9517999 -4.5946002 -1.2246
6.9454002 -4.5934 -1.2237
6.9461999 -4.6002002 -1.2244
6.9450002 -4.6022 -1.2244
6.9442 -4.6079001 -1.2248
6.9439001 -4.6111002 -1.2251
6.7470999 -4.8717999 -1.2247
6.7452002 -4.8737001 -1.2247
6.7372999 -4.8741002 -1.2237999
6.7199998 -3.9986 -1.1526
6.7158999 -3.9990001 -1.1521
6.7126002 -4.0026999 -1.152
6.9225998 -4.2332001 -1.1964
6.9218998 -4.2360001 -1.1964999
6.9229999 -4.2427001 -1.1971999
6.9640999 -4.3302002 -1.2093
6.9661002 -4.3344002 -1.2099
6.9665999 -4.3407001 -1.2105
6.9672999 -4.3441 -1.2108999
7.3354998 -4.7424002 -1.2888
7.3316998 -4.7431002 -1.2884001
7.3262 -4.7459002 -1.288
7.3260002 -4.7490001 -1.2882
7.3256001 -4.7550998 -1.2886
7.3000002 -4.7417002 -1.2844
7.2884002 -4.7406998 -1.2829
6.9503002 -4.5966001 -1.2298
6.9467001 -4.6005001 -1.2297
6.9456 -4.6026001 -1.2298
6.9429002 -4.6069999 -1.2298
6.9428 -4.6103001 -1.2301
6.7391 -4.8660002 -1.2285
6.7451 -4.8734999 -1.2299
6.7444 -4.8792 -1.2302999
6.7186999 -3.9978001 -1.1548001
6.7149 -3.9984 -1.1544
6.7089 -4.0005002 -1.1538
6.9232998 -4.2336001 -1.1991
6.9217 -4.2358999 -1.1991
6.9229002 -4.2426 -1.1997
6.9643002 -4.3302999 -1.212
6.9675999 -4.3353 -1.2128
6.9661002 -4.3404002 -1.2130001
6.9684 -4.3446999 -1.2136
7.3340998 -4.7413998 -1.2913001
7.3311 -4.7427001 -1.291
7.3253002 -4.7452998 -1.2905
7.3270001 -4.7495999 -1.2911
7.3249998 -4.7546 -1.2913001
7.2986002 -4.7406998 -1.2869
7.2828002 -4.737 -1.2847
6.9521999 -4.5977998 -1.2328
6.9464998 -4.6004 -1.2323
6.9459 -4.6027999 -1.2323999
6.9438 -4.6076002 -1.2326
6.9425001 -4.6100998 -1.2327
6.7454 -4.8737001 -1.2325
6.7434001 -4.8785 -1.2327
6.7149 -3.9955001 -1.1591001
6.7133999 -3.9974999 -1.1591001
6.7097001 -4.0008998 -1.1589
6.9232998 -4.2336001 -1.2042
6.9218001 -4.2358999 -1.2042
6.9217 -4.2419 -1.2046
6.9721999 -4.3294001 -1.2180001
6.9668999 -4.3319001 -1.2176
6.9682999 -4.3357 -1.2181
6.9651999 -4.3397999 -1.2180001
7.3344002 -4.7416 -1.2968
7.3304 -4.7421999 -1.2964
7.3243999 -4.7447 -1.2959
7.3270998 -4.7497001 -1.2966
7.3256001 -4.7550001 -1.2969
7.2940001 -4.7377 -1.2916
6.9495001 -4.6023002 -1.2381001
6.9484 -4.6044002 -1.2381001
6.9450002 -4.6083999 -1.2381001
6.9439001 -4.6110001 -1.2381001
6.7444 -4.8730001 -1.2376
6.7444 -4.8792 -1.2381999
6.7145 -3.9953001 -1.1615
6.7111001 -3.9960999 -1.1611
6.7089 -4.0005002 -1.1612
6.9238 -4.2339001 -1.2068
6.9222002 -4.2361002 -1.2068
6.9218001 -4.2419 -1.2072001
6.9703002 -4.3281999 -1.2203
6.9671001 -4.3319998 -1.2201999
6.9688001 -4.336 -1.2207
6.9657998 -4.3401999 -1.2207
7.3341999 -4.7413998 -1.2995
7.3301001 -4.7420001 -1.2991
7.3253002 -4.7452998 -1.2988
7.3281999 -4.7504001 -1.2996
7.3253999 -4.7549 -1.2996
7.2939 -4.7375998 -1.2943
6.9503999 -4.6029 -1.2409
6.9475999 -4.6037998 -1.2406
6.9449 -4.6083002 -1.2407
6.9439001 -4.6110001 -1.2408
6.9446998 -4.6177001 -1.2415
6.7447 -4.8793998 -1.2408
6.7125001 -3.994 -1.1661
6.7108002 -3.9958999 -1.166
6.6961999 -3.9928999 -1.1639
6.9229999 -4.2333999 -1.2118
6.9208002 -4.2353001 -1.2117
6.9215002 -4.2417002 -1.2122999
6.9661002 -4.3256001 -1.2247
6.9682999 -4.3327999 -1.2256
6.9668999 -4.3347998 -1.2256
6.9651999 -4.3397999 -1.2258
7.3557 -4.7486 -1.3083
7.3344998 -4.7416 -1.3051
7.3316002 -4.743 -1.3048
7.3255 -4.7454 -1.3043
7.3284001 -4.7505002 -1.3051
7.2919002 -4.7363 -1.2994
6.9507999 -4.6032 -1.2462
6.9492998 -4.605 -1.2462
6.9453001 -4.6085 -1.2460001
6.9442 -4.6111002 -1.2460999
6.9397998 -4.6142998 -1.2458
6.7445002 -4.8792 -1.2460001
6.7117 -3.9935999 -1.1684
6.7103 -3.9956 -1.1684
6.9229002 -4.2333002 -1.2143
6.921 -4.2354002 -1.2142
6.9218998 -4.2419 -1.2149
6.9679999 -4.3267999 -1.2276
6.9685998 -4.3329 -1.2282
6.967 -4.3348999 -1.2282
6.9674001 -4.3411999 -1.2287
7.3543 -4.7477002 -1.3108
7.3347001 -4.7417002 -1.3079
7.3316002 -4.743 -1.3076
7.3255 -4.7454 -1.307
7.3276 -4.7498999 -1.3077
7.323 -4.7533002 -1.3074
7.2905998 -4.7354002 -1.3019
6.9513001 -4.6034999 -1.2489001
6.9496999 -4.6051998 -1.2489001
6.9464998 -4.6093001 -1.2488
6.9446998 -4.6114998 -1.2488
6.9403 -4.6146998 -1.2485
6.7434001 -4.8783998 -1.2485
6.7066998 -3.9906001 -1.1724
6.7087998 -3.9947 -1.173
6.9219999 -4.2328 -1.2193
6.9201002 -4.2347999 -1.2192
6.9224 -4.2421999 -1.2201
6.9691 -4.3274002 -1.233
6.9689999 -4.3330998 -1.2334
6.9693999 -4.3364 -1.2337
7.3457999 -4.7421999 -1.3148
7.3365998 -4.743 -1.3137
7.3330998 -4.7438998 -1.3134
7.3264999 -4.7459998 -1.3127
7.3260002 -4.7488999 -1.3128999
7.3181 -4.7501001 -1.312
7.2908001 -4.7354999 -1.3074
6.9526 -4.6071 -1.2546
6.9487 -4.6107001 -1.2545
6.9466 -4.6127 -1.2544
6.9414001 -4.6153998 -1.2539999
6.9415998 -4.6181998 -1.2542
6.7420998 -4.8773999 -1.2534
6.7400999 -4.8790002 -1.2533
6.7066998 -3.9906001 -1.1749001
6.9214001 -4.2323999 -1.2217
6.9204001 -4.2350001 -1.2218
6.9222002 -4.2420998 -1.2226
6.9692998 -4.3274999 -1.2356
6.9696999 -4.3336 -1.2361
6.9693999 -4.3362999 -1.2363
7.3364 -4.7428002 -1.3164001
7.3327999 -4.7437 -1.316
7.3262 -4.7458 -1.3154
7.3249998 -4.7483001 -1.3155
7.3147998 -4.7479 -1.3142
7.2898998 -4.7350001 -1.3099999
6.9528999 -4.6072998 -1.2573
6.9485998 -4.6107001 -1.2571
6.9463 -4.6125002 -1.2569
6.9418998 -4.6156998 -1.2567
6.9408998 -4.6178002 -1.2567
6.7431998 -4.8782001 -1.2563
6.7412 -4.8797002 -1.2562
6.9238 -4.2339001 -1.2273
6.9211998 -4.2354999 -1.227
6.9224 -4.2421999 -1.2278
6.9713998 -4.3288999 -1.2411
6.9700999 -4.3337998 -1.2414
6.9692998 -4.3362999 -1.2415
7.3372998 -4.7433 -1.3221
7.3330002 -4.7438002 -1.3216
7.3274002 -4.7465 -1.3211
7.3266001 -4.7493 -1.3213
7.3070998 -4.7428999 -1.3183
7.2879 -4.7336998 -1.3151
6.9489999 -4.6108999 -1.2624
6.9475002 -4.6132998 -1.2624
6.9432998 -4.6166 -1.2622
6.9415998 -4.6181998 -1.2621
6.7410002 -4.8765998 -1.2611001
6.7428999 -4.881 -1.2617
6.9235001 -4.2336001 -1.2297
6.9221001 -4.2361002 -1.2298
6.9212999 -4.2414999 -1.2301
6.9700999 -4.3280001 -1.2435
6.9703002 -4.3339 -1.244
6.9692998 -4.3362002 -1.2441
7.3378 -4.7437 -1.3249
7.3337998 -4.7442999 -1.3245
7.3271999 -4.7463999 -1.3238
7.3260002 -4.7488999 -1.3239
7.3045001 -4.7412 -1.3206
7.2866998 -4.7328 -1.3176
6.9492002 -4.6110001 -1.2651
6.9474001 -4.6132002 -1.265
6.9438 -4.6169 -1.2649
6.9418001 -4.6183 -1.2648
6.7396998 -4.8755999 -1.2635
6.7420998 -4.8804002 -1.2642
6.9215002 -4.2323999 -1.2345001
6.9203 -4.2349 -1.2345001
6.9183998 -4.2396998 -1.2347
6.9713998 -4.3288002 -1.2489001
6.9716001 -4.3347001 -1.2494
6.9678998 -4.3354001 -1.249
7.3383002 -4.7438998 -1.3305
7.3316998 -4.7428999 -1.3296
7.3274999 -4.7465 -1.3293999
7.3257999 -4.7487001 -1.3293999
7.3004999 -4.7385998 -1.3253
7.2867999 -4.7329001 -1.3231
6.9534998 -4.6139002 -1.2711
6.9496999 -4.6146998 -1.2707
6.9438 -4.6169 -1.2701
6.9415998 -4.6181998 -1.27
6.9211998 -4.2322001 -1.237
6.9201999 -4.2347999 -1.2371
6.9190001 -4.2400999 -1.2374001
6.9719 -4.3291001 -1.2516
6.973 -4.3355999 -1.2522
6.9668999 -4.3347001 -1.2514
7.3376002 -4.7435002 -1.3331
7.3319001 -4.743 -1.3324
7.3277998 -4.7467999 -1.3322001
7.3256998 -4.7486 -1.3321
7.3000998 -4.7382998 -1.3279999
7.2856002 -4.7321 -1.3256
6.9533 -4.6136999 -1.2737
6.9513001 -4.6156998 -1.2736
6.9443998 -4.6173 -1.2729
6.9418001 -4.6183 -1.2726001
6.9221001 -4.2328 -1.2423
6.9211001 -4.2354002 -1.2424001
6.9218001 -4.2417998 -1.243
6.9734998 -4.3301001 -1.257
6.9717999 -4.3347998 -1.2572
7.3378 -4.7435999 -1.3387001
7.3323002 -4.7433 -1.3380001
7.3273001 -4.7463999 -1.3376
7.3253999 -4.7484002 -1.3375
7.2948999 -4.7349 -1.3325
7.2863998 -4.7326002 -1.3312
6.9503002 -4.6149998 -1.2787
6.9464002 -4.6185999 -1.2785
6.9443002 -4.6199002 -1.2783999
7.5015001 -4.5776 -1.3482
6.9212999 -4.2322998 -1.2447
6.921 -4.2353001 -1.2449
6.9225001 -4.2421999 -1.2457
6.9738998 -4.3302999 -1.2596999
6.9719 -4.3347998 -1.2598
7.3382001 -4.7438998 -1.3415
7.3326998 -4.7435002 -1.3408
7.3280001 -4.7467999 -1.3405
7.3249002 -4.7480001 -1.3401999
7.2940998 -4.7343998 -1.3351001
7.2845001 -4.7312999 -1.3336
6.9517002 -4.6160002 -1.2816
6.9447999 -4.6176 -1.2808
6.9446998 -4.6202002 -1.2811
6.9219999 -4.2326999 -1.2499
6.9208999 -4.2351999 -1.25
6.9231 -4.2426 -1.2509
6.9758 -4.3315001 -1.2652
7.3371 -4.7431002 -1.3468
7.3326998 -4.7435002 -1.3463
7.3263998 -4.7456999 -1.3457
7.3256001 -4.7484999 -1.3458
7.2897 -4.7315001 -1.3398
7.289 -4.7342 -1.3399
6.9482999 -4.6198001 -1.2867
6.9446001 -4.6201 -1.2862999
6.9496002 -4.6297002 -1.2878
6.9215002 -4.2323999 -1.2524
6.9205999 -4.2350001 -1.2525001
6.9225001 -4.2421999 -1.2533
6.9763999 -4.3318 -1.2679
7.3364 -4.7427001 -1.3494
7.3330002 -4.7437 -1.3491
7.3266001 -4.7459002 -1.3485
7.3255 -4.7484002 -1.3486
7.2855 -4.7287998 -1.3417
7.2905998 -4.7353001 -1.3429
6.9482999 -4.6198001 -1.2894
6.9475999 -4.6220999 -1.2895
6.9512 -4.6307001 -1.2907
6.9229002 -4.2332001 -1.2578
6.9211001 -4.2353001 -1.2577
6.9219999 -4.2419 -1.2584
6.9780002 -4.3327999 -1.2733001
7.5074 -4.6676998 -1.3705
7.4987998 -4.6655998 -1.3692
7.3361001 -4.7424998 -1.3549
7.3333998 -4.7438998 -1.3547
7.3262 -4.7456002 -1.3539
7.3253999 -4.7483001 -1.354
7.2803001 -4.7254 -1.3462
7.2969999 -4.7393999 -1.3496
6.9524999 -4.6226001 -1.2954
6.9491 -4.6230998 -1.295
6.9520998 -4.6313 -1.2961
6.9498 -4.6327 -1.296
6.993 -4.1784 -1.2649
6.9874001 -4.178 -1.2642
7.5205002 -4.5509 -1.3651
6.9222002 -4.2326999 -1.2602
6.9215999 -4.2356 -1.2603
6.9221001 -4.2419 -1.2609
6.9770002 -4.3322001 -1.2758
7.5049 -4.6662002 -1.3728
7.4963999 -4.6641002 -1.3715
7.3344998 -4.7413998 -1.3573
7.3326998 -4.7434001 -1.3573
7.3246999 -4.7445998 -1.3564
7.3246999 -4.7479 -1.3566
7.2806001 -4.7255001 -1.349
7.2996001 -4.7410998 -1.3528
6.9517999 -4.6220999 -1.2979
6.9498 -4.6234999 -1.2977999
6.9516001 -4.6308999 -1.2987
6.9513998 -4.6338 -1.2989
6.9857998 -4.1680999 -1.2683001
6.9829001 -4.1722999 -1.2682
6.9842 -4.1760998 -1.2687
6.9928002 -4.1869001 -1.2707
7.5272002 -4.5454998 -1.3710999
7.526 -4.5478001 -1.3710999
7.5256 -4.5539999 -1.3716
6.9218998 -4.2326002 -1.2653
6.9204998 -4.2349 -1.2653
6.9219999 -4.2417998 -1.266
7.5032001 -4.6651001 -1.3781
7.4942999 -4.6627998 -1.3767
7.4763999 -4.6581001 -1.374
7.3336 -4.7407999 -1.3627
7.3309999 -4.7423 -1.3625
7.3242998 -4.7442999 -1.3618
7.3151002 -4.7416 -1.3604
7.2810998 -4.7259002 -1.3546
7.3048 -4.7444 -1.3593
6.9489999 -4.6202002 -1.3026
6.9514999 -4.6245999 -1.3034
6.9492998 -4.6293998 -1.3035001
6.9513001 -4.6336999 -1.3042001
6.9843998 -4.1645999 -1.2703
6.9828 -4.1664 -1.2703
6.9811001 -4.1711998 -1.2704999
6.9812002 -4.1743002 -1.2707
6.9835 -4.1813998 -1.2716
7.5279999 -4.5391998 -1.3734
7.5265999 -4.5451002 -1.3737
7.5263 -4.5479999 -1.3739001
7.5271001 -4.5549002 -1.3746001
6.9221001 -4.2326999 -1.2678
6.9204001 -4.2347999 -1.2678
6.9222002 -4.2419 -1.2686
7.5043998 -4.6658001 -1.3811001
7.4935999 -4.6623001 -1.3793
7.4768 -4.6582999 -1.3767999
7.4769001 -4.6615 -1.3771
7.3323002 -4.7399998 -1.3652
7.3298998 -4.7416 -1.365
7.3234 -4.7438002 -1.3644
7.3044 -4.7346001 -1.3611
7.2809 -4.7256999 -1.3573
7.3085999 -4.7469001 -1.3627
7.3301001 -4.7674999 -1.3673
6.9359999 -4.6115999 -1.3028001
6.9521999 -4.6251001 -1.3061
6.9492002 -4.6293001 -1.3061
6.9516001 -4.6339002 -1.3069
6.9878001 -4.1606998 -1.2756
6.9833002 -4.1638999 -1.2753
6.9802999 -4.1648002 -1.2749
6.9802999 -4.1708002 -1.2754
6.9797001 -4.1733999 -1.2756
6.9780002 -4.1781001 -1.2758
6.9808002 -4.1827002 -1.2765
7.5314002 -4.5383 -1.3793
7.5310998 -4.5411 -1.3795
7.5300002 -4.5471001 -1.3799
7.5425 -4.5577998 -1.3825001
6.9211998 -4.2321 -1.2728
6.9207001 -4.2350001 -1.273
6.9221001 -4.2417998 -1.2737
7.5153999 -4.6726999 -1.3887
7.4892001 -4.6595998 -1.3841
7.4758 -4.6577001 -1.3822
7.4737 -4.6595001 -1.3821
7.3330998 -4.7403998 -1.3708
7.3305001 -4.7419 -1.3706
7.3129001 -4.7368999 -1.3679
7.2884002 -4.7242999 -1.3636
7.2789001 -4.7244 -1.3624001
7.3133998 -4.75 -1.3691
7.3298998 -4.7673001 -1.3728
6.9527998 -4.6254001 -1.3115
6.9509001 -4.6304002 -1.3117
6.9503999 -4.6331 -1.3119
6.9498 -4.6388001 -1.3123
6.9878998 -4.1606998 -1.2782
6.9833999 -4.1638999 -1.2779
6.9808002 -4.1651001 -1.2776
6.9808002 -4.171 -1.2781
6.9786 -4.1726999 -1.2779
6.9766002 -4.1771998 -1.278
6.9796 -4.1820002 -1.2788
6.9208002 -4.2319002 -1.2753
6.9200001 -4.2346001 -1.2754
6.9212999 -4.2413998 -1.2762001
7.5096998 -4.6690998 -1.3904001
7.4885001 -4.6591001 -1.3868001
7.4738002 -4.6564002 -1.3846
7.474 -4.6596999 -1.3849
7.3334999 -4.7406998 -1.3737
7.3299999 -4.7416 -1.3733
7.2993002 -4.7280998 -1.3681
7.2865 -4.7231002 -1.3660001
7.2779999 -4.7238002 -1.365
7.3136001 -4.7501001 -1.3719
7.3311 -4.7680998 -1.3758
6.9443002 -4.6198001 -1.3125
6.9510002 -4.6304002 -1.3142999
6.9503999 -4.6329999 -1.3145
6.9503999 -4.6392002 -1.3151
6.9864998 -4.1568999 -1.2828
6.9865999 -4.1599002 -1.2831
6.9839001 -4.1641998 -1.2831
6.9832001 -4.1666002 -1.2832
6.9815998 -4.1715002 -1.2834001
6.9793 -4.1732001 -1.2832
6.9733 -4.1752 -1.2826
6.974 -4.1785998 -1.2829
6.9229002 -4.2330999 -1.2808
6.9203 -4.2347002 -1.2806
6.9190998 -4.2399998 -1.2809
7.4731002 -4.6560001 -1.39
7.3336 -4.7406998 -1.3792
7.3302999 -4.7417998 -1.3789001
7.2876 -4.7205 -1.3714
7.2835002 -4.7210999 -1.3709
7.2761998 -4.7226 -1.3701
7.3070002 -4.7458 -1.3762
7.3295999 -4.7670999 -1.381
6.9542999 -4.6325998 -1.3202
6.9527998 -4.6346002 -1.3202
6.9500999 -4.6389999 -1.3203
6.9857998 -4.1564002 -1.2852
6.9864998 -4.1598001 -1.2855999
6.9816999 -4.1629 -1.2852
6.9836998 -4.1668 -1.2858
6.9814 -4.1714001 -1.2859
6.9777999 -4.1722002 -1.2855
6.9734001 -4.1753001 -1.2852
6.9713998 -4.177 -1.285
6.9710002 -4.1829 -1.2855
6.9221001 -4.2326002 -1.2832
6.9200001 -4.2344999 -1.2831
6.9158001 -4.2379999 -1.2828
7.3341999 -4.7410998 -1.3821
7.3301001 -4.7416 -1.3816
7.2866001 -4.7198 -1.3739001
7.283 -4.7206998 -1.3736
7.2753 -4.7220001 -1.3727
7.3062 -4.7452998 -1.3788
6.9537001 -4.6321998 -1.3228
6.9524999 -4.6343999 -1.3228
6.9523001 -4.6403999 -1.3233
6.9464002 -4.6395001 -1.3225
6.9857001 -4.1564002 -1.2903
6.9893999 -4.1616001 -1.2913001
6.9816999 -4.1627998 -1.2903
6.9826999 -4.1662002 -1.2908
6.9765 -4.1683998 -1.2901
6.9770999 -4.1718001 -1.2905
6.9713001 -4.1739998 -1.2898999
6.9707999 -4.1767001 -1.2901
6.9619999 -4.1774998 -1.289
6.9608998 -4.1795998 -1.289
6.9219999 -4.2325001 -1.2883
6.9197998 -4.2343998 -1.2882
7.3365002 -4.7426 -1.388
7.3311 -4.7423 -1.3873
7.2849002 -4.7186999 -1.3791
7.2810998 -4.7195001 -1.3787
7.2746 -4.7214999 -1.378
7.3049998 -4.7445002 -1.3841
6.9556999 -4.6335001 -1.3284
6.9544001 -4.6356001 -1.3285
6.9534001 -4.6410999 -1.3288
6.9496002 -4.6416001 -1.3284
6.9791999 -4.1525002 -1.2917
6.9861002 -4.1595998 -1.2932
6.9833999 -4.1638999 -1.2932
6.9837999 -4.1669002 -1.2934999
6.9747 -4.1673002 -1.2924
6.9766998 -4.1715002 -1.293
6.9689999 -4.1725998 -1.2920001
6.9671998 -4.1745 -1.2919
6.9598999 -4.1761999 -1.2911
6.9573998 -4.1774998 -1.2909
6.9535999 -4.1813002 -1.2907
6.9219999 -4.2325001 -1.2909
6.9194999 -4.2342 -1.2907
7.3367 -4.7427001 -1.3908
7.3318 -4.7427001 -1.3902
7.2849002 -4.7186999 -1.3818001
7.2799001 -4.7186999 -1.3812
7.2751002 -4.7219 -1.3808
7.3084002 -4.7466002 -1.3874
6.9555001 -4.6334 -1.331
6.9554 -4.6363001 -1.3313
6.9548001 -4.6420002 -1.3317
6.9513998 -4.6427002 -1.3313
6.9661999 -4.1360998 -1.2937
6.9653001 -4.1382999 -1.2938
6.9633999 -4.1430998 -1.2939
6.9636998 -4.1462002 -1.2941999
6.9640999 -4.1522999 -1.2948
6.9618001 -4.1536999 -1.2946
6.9576998 -4.1571999 -1.2943
6.9544001 -4.1581998 -1.294
6.9507999 -4.1616998 -1.2938
6.9492998 -4.1637998 -1.2938
6.9573998 -4.1746998 -1.2958
6.9576998 -4.1777 -1.2961
6.9512 -4.1798 -1.2954
6.9514999 -4.1830001 -1.2957
6.9212999 -4.2321 -1.2958
6.9205999 -4.2349 -1.296
7.3376002 -4.7431998 -1.3965
7.3315001 -4.7424998 -1.3956
7.2835999 -4.7178001 -1.3871
7.2788 -4.7179999 -1.3864
7.2758999 -4.7223001 -1.3865
7.3200998 -4.7542 -1.3952
7.3306999 -4.7677002 -1.3978
6.9568 -4.6371999 -1.3368
6.9551001 -4.6422 -1.3371
6.9545999 -4.6448002 -1.3372
6.9727998 -4.1164999 -1.2955
6.9724002 -4.1220002 -1.2959
6.9705 -4.1241002 -1.2958
6.9689999 -4.1290002 -1.296
6.9681001 -4.1314001 -1.2961
6.9663 -4.1360998 -1.2963001
6.9631 -4.1371002 -1.2959
6.9614 -4.1419001 -1.2961
6.9597998 -4.1438999 -1.296
6.9572001 -4.1482 -1.2961
6.9562998 -4.1504002 -1.2961
6.9551001 -4.1556001 -1.2964
6.9534998 -4.1575999 -1.2963001
6.9487 -4.1603999 -1.2959
6.9468999 -4.1623001 -1.2959
6.9523001 -4.1715999 -1.2974
6.9584999 -4.1781998 -1.2988
6.9520998 -4.1803999 -1.2981
6.9506001 -4.1824002 -1.2981
6.9468002 -4.1859002 -1.2979
6.9215002 -4.2322001 -1.2984
6.9197998 -4.2343998 -1.2984
7.3371 -4.7428999 -1.3990999
7.3316002 -4.7424998 -1.3983999
7.2821999 -4.7168999 -1.3895
7.2768998 -4.7167001 -1.3888
7.2837 -4.7273998 -1.3907
7.3256998 -4.7579002 -1.399
7.3288002 -4.7665 -1.4002
6.9563999 -4.6368999 -1.3394001
6.9549999 -4.6420999 -1.3397
6.9547 -4.6448998 -1.3399
6.9822001 -4.1192002 -1.3020999
6.9794998 -4.1204 -1.3018
6.9777002 -4.1251998 -1.302
6.9758 -4.1271 -1.3019
6.9738002 -4.1318002 -1.302
6.9738998 -4.1348 -1.3023
6.9695001 -4.138 -1.302
6.9661002 -4.1388001 -1.3016
6.9650998 -4.1441002 -1.3019
6.9640999 -4.1464 -1.302
6.9626999 -4.1515002 -1.3022
6.9594998 -4.1522999 -1.3018
6.9584999 -4.1575999 -1.3020999
6.9562998 -4.1592999 -1.302
6.9531999 -4.1630998 -1.3019
6.9506001 -4.1645002 -1.3017
6.9468002 -4.1683002 -1.3015
6.9498 -4.1729002 -1.3023
6.9528999 -4.1808 -1.3034
6.9489999 -4.1815 -1.3029
6.9440999 -4.1841998 -1.3025
6.9454999 -4.1879001 -1.303
6.9211998 -4.2319999 -1.3035001
6.9197998 -4.2343001 -1.3035001
7.3367 -4.7426 -1.4046
7.3196001 -4.7347002 -1.4016
7.2810998 -4.7161999 -1.3947999
7.2751999 -4.7154999 -1.3940001
7.3147998 -4.7474999 -1.4021
7.3273001 -4.7588 -1.4048001
7.3250999 -4.7639999 -1.405
7.3327999 -4.7722001 -1.4068
6.9548001 -4.6357999 -1.3443
6.9580002 -4.6441002 -1.3455
6.9538002 -4.6443 -1.345
6.4088998 -4.7259002 -1.2826999
6.9808002 -4.1212001 -1.3047
6.9768 -4.1245999 -1.3044
6.9759002 -4.1272001 -1.3045
6.9734998 -4.1315999 -1.3045
6.9719 -4.1336002 -1.3045
6.9696999 -4.1381001 -1.3046
6.9685001 -4.1402001 -1.3046
6.9643998 -4.1436 -1.3043
6.9654999 -4.1472001 -1.3048
6.9640002 -4.1522002 -1.3049999
6.961 -4.1532001 -1.3047
6.9590998 -4.1578999 -1.3048
6.9554 -4.1587 -1.3044
6.9538002 -4.1634998 -1.3046
6.9524002 -4.1655998 -1.3046
6.9482999 -4.1691999 -1.3043
6.9493999 -4.1725998 -1.3048
6.9506998 -4.1795001 -1.3055
6.9500999 -4.1820998 -1.3056999
6.9439001 -4.1841002 -1.3049999
6.9440999 -4.1869998 -1.3053
6.9203 -4.2314 -1.3059
6.9204998 -4.2347999 -1.3062
7.3326001 -4.7399001 -1.4065
7.2979002 -4.7206998 -1.4002
7.2796001 -4.7151999 -1.3973
7.2757001 -4.7158999 -1.3968
7.3223 -4.7523999 -1.4062999
7.3281999 -4.7595 -1.4078
7.3253002 -4.7642002 -1.4078
7.3299999 -4.7704 -1.409
6.9584999 -4.6444001 -1.3483
6.9549999 -4.6451001 -1.3479
6.4113998 -4.7217999 -1.2851
6.9534998 -4.1722999 -1.3104
6.9478998 -4.1717 -1.3096
6.9471998 -4.1773 -1.3099999
6.9487 -4.1812 -1.3105
6.9450002 -4.1847 -1.3103
6.9432998 -4.1866002 -1.3103
6.9394999 -4.1904001 -1.3101
6.9214001 -4.2321 -1.3112
6.9204998 -4.2347002 -1.3113
7.2986999 -4.7179999 -1.4055001
7.2818999 -4.7103 -1.4026
7.2763 -4.7129998 -1.4021
7.2756 -4.7157998 -1.4023
7.3260999 -4.7549 -1.4126
7.3276 -4.7589998 -1.4131
7.3256998 -4.7644 -1.4134001
7.3266001 -4.7680998 -1.4138
6.96 -4.6454 -1.3539
6.9587002 -4.6475 -1.3539
6.4071999 -4.7185998 -1.2893
7.0311999 -4.0644999 -1.3145
6.9643002 -4.1787 -1.3150001
6.954 -4.1753998 -1.3133
6.9436998 -4.1752 -1.3119
6.9453001 -4.1792002 -1.3124
6.9446001 -4.1845002 -1.3128
6.9436002 -4.1866999 -1.3128999
6.9389 -4.1900001 -1.3125
6.9224 -4.2326999 -1.314
6.9203 -4.2346001 -1.3139
7.5419002 -4.7083001 -1.4401
7.5416002 -4.7115002 -1.4404
7.5380998 -4.7157998 -1.4403
7.2872 -4.7105999 -1.4061
7.2824998 -4.7107 -1.4054
7.2756 -4.7126002 -1.4047
7.2743001 -4.7150002 -1.4047
7.3262 -4.7549 -1.4153
7.3291998 -4.7600999 -1.4162
7.3246999 -4.7638001 -1.416
7.3260999 -4.7677999 -1.4165
6.9608998 -4.6459999 -1.3566999
6.9593 -4.6479001 -1.3566
6.4074998 -4.7189002 -1.2919
7.0366998 -4.0650001 -1.3204
7.0325999 -4.0653 -1.3199
6.9664998 -4.1829 -1.3207999
6.9447999 -4.1759 -1.3171999
6.9397001 -4.1757998 -1.3164999
6.9415998 -4.1827002 -1.3174
6.9407001 -4.1848998 -1.3174
6.9383998 -4.1897001 -1.3175
6.9373002 -4.1918998 -1.3176
6.9334998 -4.1954999 -1.3174
6.9215999 -4.2322001 -1.319
6.9207001 -4.2349 -1.3191
7.5233002 -4.6901999 -1.4416
7.5416002 -4.7080998 -1.4457
7.5409002 -4.711 -1.4459
7.5391998 -4.7164998 -1.4461
7.5366001 -4.7178998 -1.4459
7.2846999 -4.7089 -1.4111
7.2814999 -4.71 -1.4107
7.2743001 -4.7117 -1.4099
7.2746 -4.7150998 -1.4103
7.3267002 -4.7551999 -1.421
7.3291998 -4.7600002 -1.4217
7.3242998 -4.7634001 -1.4214
7.3235002 -4.7660999 -1.4215
7.3343 -4.7796001 -1.4242001
6.9621 -4.6468 -1.3622
6.9605999 -4.6487999 -1.3622
6.9577999 -4.6531 -1.3622
6.9650002 -4.1820002 -1.3231
6.9471002 -4.1771998 -1.3202
6.9405999 -4.1764002 -1.3192
6.9372001 -4.1799998 -1.3191
6.9390998 -4.184 -1.3197
6.9370999 -4.1889 -1.3198
6.9363999 -4.1914001 -1.3200001
6.9345002 -4.1961002 -1.3200999
6.9219999 -4.2323999 -1.3216
6.9201999 -4.2344999 -1.3214999
7.4819002 -4.6547999 -1.4356
7.5123 -4.6834002 -1.4423
7.5411 -4.7077999 -1.4484
7.5421 -4.7117 -1.4489
7.5401001 -4.717 -1.4491
7.5402002 -4.7202001 -1.4493999
7.2835999 -4.7082 -1.4136
7.2806001 -4.7094002 -1.4133
7.2749 -4.7121 -1.4128
7.2775998 -4.7171001 -1.4136
7.3252001 -4.7542 -1.4234
7.3302002 -4.7607002 -1.4247
7.3227 -4.7624002 -1.4238
7.3242998 -4.7666001 -1.4245
7.3283 -4.7756 -1.4258
6.9639001 -4.6479001 -1.3652
6.9617 -4.6494999 -1.365
6.9597998 -4.6545 -1.3653001
7.0563002 -4.0535002 -1.3299
7.0485001 -4.0549002 -1.3289
7.0440998 -4.0552001 -1.3283
7.0360999 -4.0560999 -1.3273
6.9596 -4.1848001 -1.3277
6.9449 -4.1788998 -1.3252
6.9376001 -4.1803002 -1.3243001
6.9331002 -4.1803999 -1.3237
6.9345002 -4.1873002 -1.3245
6.9352999 -4.1907001 -1.3249
6.9331999 -4.1953001 -1.325
6.9333 -4.1982999 -1.3253
6.9285002 -4.2010999 -1.3248
6.9274001 -4.2033 -1.3249
6.9243999 -4.2073998 -1.3248
6.9221001 -4.2325001 -1.3267
6.9203 -4.2346001 -1.3267
7.4719 -4.6486001 -1.4392
7.4646001 -4.6504998 -1.4384
7.5050001 -4.6788001 -1.4464999
7.5416999 -4.7082 -1.4541
7.5408001 -4.7108998 -1.4543
7.5457001 -4.7205 -1.4558001
7.2800002 -4.7058001 -1.4184
7.2785001 -4.7080998 -1.4184
7.2740998 -4.7115998 -1.4181
7.2908001 -4.7255998 -1.4217
7.3246002 -4.7537999 -1.4288
7.3281002 -4.7593002 -1.4298
7.3225002 -4.7621999 -1.4293
7.3228002 -4.7656002 -1.4297
7.322 -4.7715001 -1.4301
6.9631 -4.6504002 -1.3706
6.9603 -4.6546998 -1.3706
6.9589 -4.6568999 -1.3707
7.0588999 -4.0521998 -1.3327
7.0556002 -4.0531001 -1.3322999
7.0461001 -4.0535002 -1.3311
7.0404 -4.0531001 -1.3302
7.0321999 -4.0538998 -1.3291
7.5584002 -4.5286002 -1.4433
7.5453 -4.5272999 -1.4414001
6.9614 -4.1859002 -1.3306
6.9475999 -4.1805 -1.3282
6.9338999 -4.178 -1.3261
6.9222999 -4.1739001 -1.3242
6.9309001 -4.1851001 -1.3263
6.9330001 -4.1893001 -1.327
6.9317999 -4.1943998 -1.3273
6.9315 -4.1971998 -1.3275
6.9299998 -4.2020001 -1.3277
6.9287 -4.2041001 -1.3277
6.9264002 -4.2086 -1.3278
6.9194002 -4.2073998 -1.3267
6.9224 -4.2326002 -1.3293999
6.9194002 -4.2340002 -1.3291
7.474 -4.6497998 -1.4424
7.4626002 -4.6492 -1.4408
7.5 -4.6757002 -1.4483
7.5414 -4.7080002 -1.4569
7.5401001 -4.7104998 -1.4569
7.2790999 -4.7052999 -1.4209
7.2774 -4.7073998 -1.4209
7.2729998 -4.7108002 -1.4206001
7.3003001 -4.7316999 -1.4262
7.3239999 -4.7533998 -1.4315
7.3277998 -4.7591 -1.4325
7.322 -4.7618999 -1.432
7.3211002 -4.7645001 -1.4321001
7.3224001 -4.7718 -1.433
6.9597998 -4.6543999 -1.3732001
6.9597001 -4.6574001 -1.3735
7.0658998 -4.0504999 -1.3387001
7.0525999 -4.0486002 -1.3367
7.0485001 -4.0489998 -1.3361
7.0369 -4.0482001 -1.3344001
7.0328002 -4.0486999 -1.3339
7.5559001 -4.5271001 -1.4484
7.5482998 -4.5290999 -1.4475
7.5541 -4.5356002 -1.4489
6.9555001 -4.1823001 -1.3346
6.8913999 -4.1466999 -1.3226
6.8678999 -4.1382999 -1.3186001
6.8635998 -4.1384001 -1.318
6.9208002 -4.1877999 -1.3303
6.9274998 -4.1947999 -1.3318
6.9274998 -4.2005 -1.3322999
6.9278002 -4.2034998 -1.3326
6.9253998 -4.2080002 -1.3327
6.9229002 -4.2094998 -1.3325
6.9229002 -4.2329001 -1.3346
6.9194002 -4.2340002 -1.3342
7.4747 -4.6503 -1.4481
7.4537001 -4.6437001 -1.4446
7.4871001 -4.6676002 -1.4514
7.2776999 -4.7044001 -1.4261
7.2754002 -4.7061 -1.426
7.2716999 -4.7098999 -1.4258
7.3120999 -4.7392998 -1.4341
7.3267002 -4.7551999 -1.4375
7.3256001 -4.7575998 -1.4376
7.3221002 -4.7620001 -1.4375
7.3221002 -4.7651 -1.4378
7.3234 -4.7723999 -1.4387
6.9617 -4.6556001 -1.3789001
6.9605999 -4.658 -1.3789001
7.0668001 -4.0481 -1.3412
7.0650001 -4.0500002 -1.3411
7.0479999 -4.0458999 -1.3384
7.0440001 -4.0464001 -1.3379
7.0346999 -4.0468998 -1.3365999
7.5574999 -4.5279999 -1.4515001
7.5517998 -4.5311999 -1.451
7.5535002 -4.5352998 -1.4516
6.8667002 -4.1318002 -1.3204
6.8582001 -4.1324 -1.3192
6.8565001 -4.1341 -1.3192
6.8526001 -4.1378002 -1.3189
6.8593998 -4.1447001 -1.3205
6.8923998 -4.1704998 -1.3274
6.9249001 -4.1989002 -1.3344001
6.9259 -4.2023001 -1.3348
6.9259 -4.2083001 -1.3354
6.9225998 -4.2093 -1.335
6.9225998 -4.2154002 -1.3355
6.9228001 -4.2329001 -1.3371
6.9200001 -4.2343001 -1.3369
7.5380998 -4.6865001 -1.4629
7.4745002 -4.6501002 -1.4509
7.4534998 -4.6434999 -1.4474
7.4773002 -4.6615 -1.4523
7.2775002 -4.7041998 -1.4288
7.2761002 -4.7065001 -1.4289
7.2722998 -4.7103 -1.4287
7.3175001 -4.7428002 -1.4378999
7.3277001 -4.7557998 -1.4405
7.3246002 -4.7568998 -1.4402
7.3225002 -4.7621999 -1.4404
7.3246002 -4.7666998 -1.4411
7.3256998 -4.7737999 -1.4419
7.0682998 -4.0432 -1.3462
7.0602999 -4.0444002 -1.3451
7.0546999 -4.0440998 -1.3443
7.0437002 -4.0433998 -1.3427
7.0370998 -4.0423999 -1.3417
7.5609002 -4.5300002 -1.4577
7.5570998 -4.5342999 -1.4576
7.5565 -4.5370002 -1.4577
6.8618999 -4.1289001 -1.3245
6.8565998 -4.1314001 -1.324
6.8551002 -4.1332998 -1.3239
6.8525 -4.1378002 -1.324
6.8662 -4.1489 -1.3269
6.8702002 -4.1571002 -1.3282
6.9218001 -4.197 -1.3389
6.9225001 -4.2003002 -1.3393
6.9229999 -4.2065001 -1.3399
6.9229999 -4.2094998 -1.3401999
6.9222002 -4.2150998 -1.3406
6.9218998 -4.2178001 -1.3408
6.9233999 -4.2332001 -1.3424
6.9200001 -4.2343001 -1.342
7.4819002 -4.6547999 -1.4579
7.4506998 -4.6417999 -1.4524
7.4640999 -4.6532001 -1.4553
7.2834001 -4.7013998 -1.4349
7.2754998 -4.7028999 -1.4339
7.2739 -4.7049999 -1.4339
7.2737999 -4.7112999 -1.4345
7.3267002 -4.7487998 -1.4452
7.3274999 -4.7556 -1.446
7.3221002 -4.7553 -1.4452
7.3249998 -4.7638001 -1.4464
7.3281999 -4.7690001 -1.4473
7.0702 -4.0414 -1.3489
7.0570998 -4.0425 -1.3471
7.0507002 -4.0416999 -1.3461
7.0423999 -4.0426998 -1.345
7.5566001 -4.5275002 -1.4597
7.5570002 -4.5342999 -1.4603
7.5565 -4.5370002 -1.4605
6.8625002 -4.1292 -1.3272001
6.8575001 -4.1318998 -1.3267
6.8548999 -4.1331 -1.3264
6.8717999 -4.1581001 -1.331
6.8708 -4.1603999 -1.3311
6.9212999 -4.1967001 -1.3414
6.9215999 -4.1996999 -1.3417
6.9221001 -4.2059002 -1.3423001
6.9228001 -4.2094002 -1.3427
6.9197001 -4.2136002 -1.3427
6.9218001 -4.2177 -1.3433
6.9232001 -4.2330999 -1.3449
6.9201002 -4.2343998 -1.3446
7.4910002 -4.6603999 -1.4624
7.4524002 -4.6427999 -1.4555
7.4580998 -4.6494999 -1.4569
7.2783999 -4.6981001 -1.4366
7.2750001 -4.7024999 -1.4365
7.2725 -4.7041001 -1.4364001
7.2761002 -4.7126999 -1.4377
7.3284998 -4.7498999 -1.4483
7.3274999 -4.7556 -1.4487
7.3225999 -4.7556 -1.448
7.3274002 -4.7652998 -1.4496
7.3323002 -4.7716999 -1.4509
7.0711002 -4.0362 -1.3537
7.0689998 -4.0407 -1.3538001
7.0623002 -4.0397 -1.3527
7.046 -4.0362 -1.3501
7.0432 -4.0374999 -1.3498
7.5489998 -4.5229001 -1.4638
7.5570998 -4.5342999 -1.4658999
7.5549998 -4.5360999 -1.4658
6.8578 -4.1234002 -1.331
6.8622999 -4.1290998 -1.3322001
6.8558002 -4.1308999 -1.3314
6.8539 -4.1325002 -1.3313
6.8751001 -4.1599998 -1.3367
6.8748999 -4.1629 -1.337
6.9096999 -4.1896 -1.3442
6.9211001 -4.1993999 -1.3467
6.9205999 -4.2049999 -1.3471
6.9201002 -4.2077999 -1.3473001
6.9196 -4.2135 -1.3478
6.9176998 -4.2151999 -1.3477
6.9193001 -4.2219 -1.3485
6.9147 -4.2220001 -1.3478
6.9236999 -4.2333999 -1.3501
6.9203 -4.2344999 -1.3497
7.4527001 -4.6430001 -1.4611
7.4516001 -4.6454 -1.4612
7.2624998 -4.6943998 -1.4396
7.2697001 -4.7023001 -1.4413
7.2905998 -4.7220998 -1.446
7.3288002 -4.7501001 -1.4539
7.3246999 -4.7536998 -1.4536999
7.3248 -4.757 -1.454
7.3309002 -4.7676001 -1.4558001
7.3319998 -4.7715001 -1.4564
7.0746002 -4.0353999 -1.3566999
7.0731001 -4.0373001 -1.3566999
7.0654998 -4.0387001 -1.3557
7.0573001 -4.0369 -1.3544
7.0458002 -4.0359998 -1.3526
7.5597 -4.5261002 -1.4683
7.5469999 -4.5216999 -1.4662
7.5570002 -4.5342002 -1.4687001
7.5546999 -4.5359001 -1.4685
6.8599 -4.1247001 -1.334
6.8606 -4.1280999 -1.3344001
6.8544998 -4.1300998 -1.3336999
6.8544998 -4.1328001 -1.3339
6.8773999 -4.1613998 -1.3397
6.8769002 -4.1641002 -1.3399
6.895 -4.1806998 -1.3439
6.9198999 -4.1985998 -1.349
6.9190001 -4.204 -1.3494
6.9194002 -4.2073002 -1.3497
6.9189 -4.2131 -1.3502001
6.9169998 -4.2147999 -1.3501
6.9183002 -4.2213001 -1.3508
6.9191999 -4.2247 -1.3513
6.9247999 -4.2340002 -1.3529
6.9198999 -4.2342 -1.3522
7.4534001 -4.6434002 -1.464
7.4496999 -4.6441998 -1.4636
7.2480001 -4.6882 -1.4397
7.3056998 -4.7319002 -1.4518
7.3298001 -4.7508001 -1.4569
7.3256001 -4.7543001 -1.4566
7.3256998 -4.7575998 -1.4569
7.3316002 -4.7680001 -1.4586999
7.3340001 -4.7726998 -1.4595
7.0752001 -4.0356998 -1.362
7.0686998 -4.0348001 -1.3609999
7.0553999 -4.0328999 -1.3589
7.0472999 -4.0311999 -1.3576
7.5497999 -4.5201001 -1.472
7.5493999 -4.5230999 -1.4722
7.5553999 -4.5332999 -1.474
7.5584998 -4.5381999 -1.4748
6.8625002 -4.1262002 -1.3396
6.8606 -4.1280999 -1.3395
6.855 -4.1304002 -1.3389
6.8548999 -4.1331 -1.3391
6.9334998 -4.1866002 -1.355
6.9348998 -4.1903 -1.3555
6.8909001 -4.1696 -1.3475
6.8799 -4.1659002 -1.3456
6.8822999 -4.1729999 -1.3465
6.9112 -4.1932998 -1.3525
6.9194002 -4.2042999 -1.3546
6.9176998 -4.2062998 -1.3545001
6.9166002 -4.2117 -1.3549
6.9159999 -4.2140999 -1.355
6.9148002 -4.2192001 -1.3552999
6.9159999 -4.2227001 -1.3558
6.9219999 -4.2322998 -1.3575
6.9208002 -4.2347999 -1.3576
7.4535999 -4.6434999 -1.4696
7.4438 -4.6405001 -1.4680001
7.3241 -4.7533002 -1.4618
7.3239999 -4.7564998 -1.4621
7.3323998 -4.7684999 -1.4644001
7.3369002 -4.7746 -1.4656
7.0723 -4.0339999 -1.364
7.0637002 -4.0318999 -1.3626
7.5500002 -4.5201998 -1.4748
7.5495 -4.5232 -1.475
7.5549998 -4.533 -1.4766999
7.5595002 -4.5387998 -1.4778
6.8629999 -4.1265001 -1.3422
6.8600998 -4.1278 -1.3419
6.8554001 -4.1306 -1.3415
6.8562999 -4.1339002 -1.3419
6.9358001 -4.1880002 -1.358
6.9365001 -4.1911998 -1.3584
6.9070001 -4.1792998 -1.3530999
6.8829999 -4.1676998 -1.3487
6.8839998 -4.1739998 -1.3494
6.8965998 -4.1845002 -1.3522
6.9183002 -4.2035999 -1.3569
6.9162002 -4.2052999 -1.3568
6.9173002 -4.2121 -1.3576
6.9159999 -4.2142 -1.3576
6.9155998 -4.2196999 -1.358
6.9145002 -4.2217999 -1.3581001
6.9194002 -4.2307 -1.3595001
6.9208002 -4.2347999 -1.3601
7.4530001 -4.6430998 -1.4723001
7.4419999 -4.6394 -1.4704
7.3253999 -4.7540998 -1.4649
7.3246999 -4.7568998 -1.465
7.3309999 -4.7676001 -1.4669
7.0766001 -4.0306001 -1.3695
7.0595002 -4.0267 -1.3667001
7.0595999 -4.0296001 -1.3669
7.5507002 -4.5205998 -1.4805
7.5507002 -4.5237999 -1.4808
7.5559001 -4.5335002 -1.4823999
7.5581999 -4.5380001 -1.4831001
6.8631001 -4.1265998 -1.3473001
6.8597999 -4.1276002 -1.3469
6.8534999 -4.1293998 -1.3462
6.8546 -4.1329002 -1.3466001
6.9426999 -4.1922002 -1.3645
6.9366002 -4.1912999 -1.3636
6.928 -4.1919999 -1.3624001
6.9094 -4.1837001 -1.359
6.8848 -4.1745 -1.3547
6.8859 -4.1778998 -1.3551
6.9161 -4.2021999 -1.3616
6.9176998 -4.2062001 -1.3622
6.9169002 -4.2118001 -1.3626
6.9155998 -4.2139001 -1.3626
6.9133 -4.2182002 -1.3627
6.9131999 -4.2210002 -1.3629
6.9144001 -4.2276001 -1.3637
6.9205999 -4.2346001 -1.3652
7.4537001 -4.6434999 -1.478
7.4442 -4.6406999 -1.4764
7.3253999 -4.7574 -1.4707
7.0805998 -4.0300999 -1.3726
7.0716 -4.0278001 -1.3710999
7.0613999 -4.0278001 -1.3696001
7.5514998 -4.5211 -1.4835
7.5510001 -4.5240002 -1.4837
7.5549998 -4.533 -1.485
7.5562 -4.5367999 -1.4855
6.8632002 -4.1266999 -1.3498
6.8578 -4.1264 -1.349
6.8537002 -4.1296 -1.3487
6.9493999 -4.1961999 -1.3684
6.9379001 -4.1921 -1.3664
6.9295998 -4.1929002 -1.3653001
6.9229002 -4.1918001 -1.3642
6.8852 -4.1746998 -1.3573
6.8873 -4.1788001 -1.358
6.9088998 -4.1978002 -1.3628
6.9187999 -4.2069001 -1.365
6.9159002 -4.2112002 -1.365
6.9159999 -4.2140999 -1.3653001
6.9134998 -4.2184 -1.3653001
6.9137001 -4.2213001 -1.3656
6.9134998 -4.2270999 -1.3661
6.9200001 -4.2343001 -1.3677
7.4527001 -4.6429 -1.4805
7.4422002 -4.6395001 -1.4787
7.0865998 -4.0278001 -1.3784
7.0678 -4.0228 -1.3753
7.0647001 -4.0237999 -1.3749
7.5531001 -4.5219998 -1.4893
7.5525999 -4.5250001 -1.4895
7.5532999 -4.5318999 -1.4903001
7.5574002 -4.5374999 -1.4914
6.862 -4.1258998 -1.3547
6.8583999 -4.1266999 -1.3542
6.8424001 -4.1227002 -1.3516001
6.9457998 -4.1968002 -1.3731
6.9322 -4.1945 -1.3709
6.9285998 -4.1952 -1.3705
6.8931999 -4.1795998 -1.364
6.8873 -4.1788001 -1.3631001
6.8937001 -4.1886001 -1.3649
6.9151001 -4.2045999 -1.3694
6.9168 -4.2117 -1.3703001
6.9151001 -4.2135 -1.3702
6.9137998 -4.2185001 -1.3705
6.9141002 -4.2214999 -1.3708
6.9126 -4.2265 -1.3710001
6.9193001 -4.2337999 -1.3727
6.9246001 -4.243 -1.3743
7.5377998 -4.6669002 -1.5003999
7.4492998 -4.6406999 -1.4854
7.4456 -4.6416001 -1.485
7.0890999 -4.0264001 -1.3813
7.0813999 -4.0247998 -1.38
7.0674 -4.0225 -1.3777
7.0718999 -4.0279002 -1.3789001
7.5535002 -4.5222998 -1.4922
7.5528998 -4.5251999 -1.4924001
7.5534 -4.5320001 -1.4931
7.5588999 -4.5384002 -1.4944
6.8617001 -4.1257 -1.3571
6.8580999 -4.1265001 -1.3566999
6.9335999 -4.1953001 -1.3737
6.9299998 -4.1961002 -1.3733
6.9052 -4.1868 -1.3688999
6.8892002 -4.1799002 -1.3660001
6.8913002 -4.1870999 -1.367
6.9106002 -4.2019 -1.3710999
6.9159002 -4.2111001 -1.3727
6.9147 -4.2133002 -1.3727
6.9143 -4.2188001 -1.3731
6.9151001 -4.2220998 -1.3736
6.9124999 -4.2263999 -1.3736
6.9171 -4.2323999 -1.3748
6.9278998 -4.2449999 -1.3775001
7.5397 -4.6680999 -1.5036
7.5380001 -4.6701002 -1.5035
7.4334998 -4.6308999 -1.485
7.4464002 -4.6420002 -1.4879
7.0749002 -4.0183001 -1.3836
7.0723 -4.0195999 -1.3834
7.0770998 -4.0279999 -1.3848
7.5517001 -4.5212002 -1.4974
7.5537 -4.5256 -1.4981
7.5539999 -4.5323 -1.4988
7.5576 -4.5374999 -1.4998
6.862 -4.1258998 -1.3623
6.8569002 -4.1258001 -1.3615
6.9366002 -4.1971002 -1.3795
6.9324999 -4.1975999 -1.3789001
6.9211998 -4.1964998 -1.3772
6.8987999 -4.1856999 -1.373
6.8926001 -4.1879001 -1.3723
6.8978 -4.1940999 -1.3736
6.9155998 -4.211 -1.3777
6.9159999 -4.2140002 -1.3781
6.9162002 -4.2199998 -1.3787
6.915 -4.2220001 -1.3787
6.9130001 -4.2266998 -1.3788
6.9164 -4.2319999 -1.3798
6.9254999 -4.2435002 -1.3821
7.5376 -4.6602001 -1.5081
7.539 -4.6676002 -1.5089999
7.5377002 -4.6698999 -1.5091
7.4380999 -4.6368999 -1.4918
7.2746 -4.6922002 -1.4739
7.2652998 -4.6894999 -1.4723001
7.0725999 -4.0170002 -1.3857
7.0755 -4.0215001 -1.3866
7.0833001 -4.0316 -1.3886
7.5514998 -4.5209999 -1.5002
7.5538001 -4.5256 -1.5009
7.5537 -4.5321002 -1.5015
7.5580001 -4.5377998 -1.5026
6.8624001 -4.1261001 -1.3649
6.8568001 -4.1257 -1.364
6.9341002 -4.1985998 -1.3818001
6.9232998 -4.1978002 -1.3802
6.9088001 -4.1918001 -1.3776
6.8913999 -4.1870999 -1.3746001
6.8948998 -4.1922998 -1.3756
6.9151001 -4.2105999 -1.3802
6.9152999 -4.2136002 -1.3805
6.915 -4.2192001 -1.381
6.9159999 -4.2227001 -1.3814
6.9130998 -4.2268 -1.3814
6.9166999 -4.2322001 -1.3824
6.9212999 -4.2410002 -1.3839
7.5373001 -4.6567001 -1.5106
7.5373001 -4.6599998 -1.5109
7.5395002 -4.6679001 -1.5118999
7.5383 -4.6703 -1.512
7.2704 -4.6834002 -1.4752001
7.2740998 -4.6918998 -1.4765
7.2697001 -4.6922998 -1.4759001
7.2530999 -4.6882 -1.4732
7.0823998 -4.0169001 -1.3923
7.0808001 -4.0215998 -1.3925
7.0813999 -4.0247998 -1.3929
7.5541 -4.5226002 -1.5063
7.5527 -4.5249 -1.5063
7.5521998 -4.5311999 -1.5068001
7.5700998 -4.5451002 -1.5106
6.862 -4.1258001 -1.3699
6.8568001 -4.1257 -1.3691
6.9284 -4.2007999 -1.3863
6.9214001 -4.1993999 -1.3852
6.8955002 -4.1896 -1.3806
6.8955998 -4.1926999 -1.3809
6.9078002 -4.2062001 -1.3839
6.9159002 -4.2140002 -1.3857
6.9152999 -4.2193999 -1.3862
6.9144001 -4.2216001 -1.3862
6.9152999 -4.2280998 -1.387
6.9180999 -4.2329998 -1.3878
6.9191999 -4.2396002 -1.3886
6.9233999 -4.2449999 -1.3897001
7.5331998 -4.6542001 -1.5154001
7.5376 -4.6602001 -1.5166
7.5367999 -4.6662002 -1.517
7.5349998 -4.6682 -1.5168999
7.2716999 -4.6841998 -1.4809
7.2719998 -4.6904998 -1.4816
7.2677999 -4.6911001 -1.4809999
7.2688999 -4.6984 -1.4819
7.3042998 -4.7245002 -1.4894
7.0769 -4.0138001 -1.3938
7.0813999 -4.0219998 -1.3952
7.0837998 -4.0261002 -1.3959
7.546 -4.5177002 -1.5074
7.5531001 -4.5251999 -1.5092
7.5517001 -4.5309 -1.5095
6.8617001 -4.1257 -1.3724
6.8566999 -4.1255999 -1.3716
7.5500002 -4.5489998 -1.5109
7.5451002 -4.5490999 -1.5102
6.9250998 -4.2016001 -1.3885
6.8978 -4.191 -1.3836
6.8948998 -4.1922998 -1.3832999
6.9035001 -4.2035999 -1.3856
6.9173999 -4.2149 -1.3886
6.9161 -4.2198 -1.3889
