# .PCD v.7 - Point Cloud Data file format
VERSION .7
FIELDS x y z _
SIZE 4 4 4 1
TYPE F F F U
COUNT 1 1 1 4
WIDTH 1121
HEIGHT 1
VIEWPOINT 0 0 0 1 0 0 0
POINTS 1121
DATA ascii
-0.05992326 0.1281256 0.7515991 0 0 128 63
-0.05624017 0.1289804 0.7544795 0 0 128 63
-0.09466621 0.1197952 0.7240518 0 0 128 63
-0.09115413 0.1218858 0.7264616 0 0 128 63
-0.08738527 0.123376 0.7293324 0 0 128 63
-0.08383182 0.1243307 0.7321284 0 0 128 63
-0.07944837 0.126219 0.7347734 0 0 128 63
-0.07565752 0.1273524 0.7383805 0 0 128 63
-0.07281998 0.1284851 0.7418621 0 0 128 63
-0.06953064 0.1297029 0.7449585 0 0 128 63
-0.06548843 0.1311458 0.7482355 0 0 128 63
-0.06144634 0.1325887 0.7515125 0 0 128 63
-0.05844912 0.1342027 0.754067 0 0 128 63
-0.09241864 0.1263134 0.7273194 0 0 128 63
-0.0891411 0.1283856 0.7298913 0 0 128 63
-0.0859265 0.1293844 0.7329353 0 0 128 63
-0.0819051 0.130936 0.7354354 0 0 128 63
-0.07800564 0.1323525 0.7388384 0 0 128 63
-0.07456371 0.1335948 0.7417631 0 0 128 63
-0.07095996 0.1348677 0.7445503 0 0 128 63
-0.0672321 0.1362556 0.7481363 0 0 128 63
-0.06318995 0.1376985 0.7514133 0 0 128 63
-0.05975893 0.1389861 0.7542093 0 0 128 63
-0.05758074 0.1394709 0.755908 0 0 128 63
-0.09372184 0.1318151 0.7278109 0 0 128 63
-0.09105 0.1326314 0.7299456 0 0 128 63
-0.08793661 0.1335884 0.7324341 0 0 128 63
-0.08378902 0.1352234 0.7358321 0 0 128 63
-0.07985237 0.1367573 0.7390531 0 0 128 63
-0.07634041 0.138011 0.7419002 0 0 128 63
-0.07213268 0.1399131 0.7441446 0 0 128 63
-0.06837586 0.1414269 0.7474658 0 0 128 63
-0.06471303 0.1421617 0.7513267 0 0 128 63
-0.06116983 0.1434265 0.7541991 0 0 128 63
-0.05880138 0.1439093 0.7560361 0 0 128 63
-0.0918099 0.1358503 0.7301297 0 0 128 63
-0.08426335 0.1405788 0.7367144 0 0 128 63
-0.08145002 0.1406189 0.7387742 0 0 128 63
-0.07765356 0.1418591 0.7418256 0 0 128 63
-0.07431278 0.1440914 0.7445627 0 0 128 63
-0.07030317 0.1454692 0.7471718 0 0 128 63
-0.06538007 0.1451011 0.7515145 0 0 128 63
-0.06248298 0.1472746 0.7541245 0 0 128 63
-0.05962601 0.1482945 0.7564406 0 0 128 63
-0.08298382 0.1442732 0.7384941 0 0 128 63
-0.07974675 0.1496748 0.7420921 0 0 128 63
-0.07557997 0.1495396 0.7450981 0 0 128 63
-0.0733144 0.149158 0.7466618 0 0 128 63
-0.07971224 0.1511733 0.7424608 0 0 128 63
-0.07817772 0.1517211 0.7437049 0 0 128 63
-0.07253429 0.1551156 0.7485965 0 0 128 63
-0.07051316 0.1558371 0.7502351 0 0 128 63
-0.07557985 0.04528373 0.7243374 0 0 128 63
-0.03534427 0.05676843 0.7556676 0 0 128 63
-0.03416598 0.05846041 0.7584633 0 0 128 63
-0.03211749 0.06022719 0.7627978 0 0 128 63
-0.03085494 0.06144139 0.7650452 0 0 128 63
-0.08955476 0.04381317 0.7182193 0 0 128 63
-0.08617285 0.04452506 0.7208474 0 0 128 63
-0.08170512 0.04609887 0.7235494 0 0 128 63
-0.07672688 0.04777247 0.724162 0 0 128 63
-0.04120496 0.06040853 0.7522307 0 0 128 63
-0.03470543 0.06246744 0.7585586 0 0 128 63
-0.03358772 0.06311047 0.7629641 0 0 128 63
-0.03127471 0.06267151 0.7650213 0 0 128 63
-0.08750841 0.04932888 0.7208857 0 0 128 63
-0.08315548 0.0504237 0.7233207 0 0 128 63
-0.07867333 0.05241607 0.7242216 0 0 128 63
-0.04419971 0.06619243 0.7516888 0 0 128 63
-0.04120758 0.0671905 0.7550426 0 0 128 63
-0.03821325 0.06723602 0.7591929 0 0 128 63
-0.03519943 0.0667904 0.7631052 0 0 128 63
-0.08942351 0.05419949 0.7206178 0 0 128 63
-0.08502749 0.05570629 0.722778 0 0 128 63
-0.0801836 0.0573319 0.7236399 0 0 128 63
-0.04897663 0.06989484 0.7487416 0 0 128 63
-0.04740191 0.06926024 0.7524285 0 0 128 63
-0.04512891 0.06829758 0.7557942 0 0 128 63
-0.09358814 0.05776542 0.7184789 0 0 128 63
-0.09094492 0.05870695 0.7205165 0 0 128 63
-0.08669618 0.06020115 0.7228022 0 0 128 63
-0.08173224 0.06180429 0.7235717 0 0 128 63
-0.05117652 0.07306759 0.7491243 0 0 128 63
-0.05006936 0.07269351 0.7526141 0 0 128 63
-0.09490123 0.06161353 0.7184043 0 0 128 63
-0.0925447 0.06319782 0.720485 0 0 128 63
-0.08808181 0.06476644 0.7228391 0 0 128 63
-0.0827935 0.06625345 0.7239783 0 0 128 63
-0.07935002 0.06908369 0.7264178 0 0 128 63
-0.07732895 0.06980516 0.7280564 0 0 128 63
-0.06235948 0.07589194 0.7403626 0 0 128 63
-0.05607316 0.07526989 0.7448019 0 0 128 63
-0.05346832 0.07698101 0.7497777 0 0 128 63
-0.05168852 0.07786991 0.753448 0 0 128 63
-0.09780958 0.06853676 0.7178721 0 0 128 63
-0.09409633 0.06855524 0.720331 0 0 128 63
-0.08973071 0.06988418 0.7223914 0 0 128 63
-0.08509049 0.07107811 0.7231947 0 0 128 63
-0.06886765 0.07786742 0.7363518 0 0 128 63
-0.06635395 0.07855047 0.7395711 0 0 128 63
-0.0624595 0.07994846 0.741704 0 0 128 63
-0.05790487 0.0815268 0.7450064 0 0 128 63
-0.05576357 0.08201604 0.7500354 0 0 128 63
-0.05358359 0.08289123 0.7533979 0 0 128 63
-0.09897467 0.07166921 0.717042 0 0 128 63
-0.09457883 0.07315218 0.7191877 0 0 128 63
-0.09018299 0.07463515 0.7213334 0 0 128 63
-0.08631602 0.07679579 0.7231091 0 0 128 63
-0.08227435 0.07706273 0.7261161 0 0 128 63
-0.07022509 0.08237246 0.7361158 0 0 128 63
-0.06730786 0.0834356 0.7386956 0 0 128 63
-0.0634065 0.0846391 0.7416053 0 0 128 63
-0.05920312 0.0861396 0.7450131 0 0 128 63
-0.05659345 0.08667113 0.7492393 0 0 128 63
-0.0551174 0.08738593 0.7533107 0 0 128 63
-0.1031695 0.07600018 0.7156769 0 0 128 63
-0.1004311 0.0762006 0.7168798 0 0 128 63
-0.09644094 0.07757972 0.7193702 0 0 128 63
-0.09162006 0.07917573 0.7211524 0 0 128 63
-0.08759305 0.08084323 0.7231065 0 0 128 63
-0.05960742 0.0912049 0.7458799 0 0 128 63
-0.05744371 0.09096548 0.7481363 0 0 128 63
-0.05574635 0.09238848 0.7522016 0 0 128 63
-0.05436417 0.09342241 0.7552439 0 0 128 63
-0.1021223 0.08116899 0.7173458 0 0 128 63
-0.09866431 0.0826132 0.7196903 0 0 128 63
-0.09418288 0.08411697 0.7217809 0 0 128 63
-0.0901027 0.0857061 0.7223924 0 0 128 63
-0.05825076 0.09600605 0.7479697 0 0 128 63
-0.05694959 0.09736951 0.7516691 0 0 128 63
-0.05494007 0.09845786 0.7558643 0 0 128 63
-0.03820974 0.1063721 0.7699876 0 0 128 63
-0.03566051 0.105864 0.7715893 0 0 128 63
-0.03113261 0.1068255 0.7738237 0 0 128 63
-0.02737391 0.1081879 0.7772112 0 0 128 63
-0.02422327 0.1095032 0.7801446 0 0 128 63
-0.1037402 0.08591629 0.7175348 0 0 128 63
-0.100354 0.08707061 0.7197433 0 0 128 63
-0.09591582 0.08919518 0.7216823 0 0 128 63
-0.091566 0.08839484 0.7219424 0 0 128 63
-0.05773726 0.1023905 0.7511714 0 0 128 63
-0.05569068 0.1029808 0.7555881 0 0 128 63
-0.03656581 0.1101051 0.7711608 0 0 128 63
-0.03160313 0.1118528 0.7716066 0 0 128 63
-0.02698606 0.1126785 0.7759786 0 0 128 63
-0.02474114 0.1146075 0.7791758 0 0 128 63
-0.02140743 0.116145 0.7816677 0 0 128 63
-0.01953483 0.1172601 0.7848371 0 0 128 63
-0.1052767 0.09041888 0.7174475 0 0 128 63
-0.1015497 0.09166149 0.7193477 0 0 128 63
-0.09657356 0.09367634 0.7204028 0 0 128 63
-0.05861637 0.1069726 0.7513366 0 0 128 63
-0.05649099 0.1076891 0.7553136 0 0 128 63
-0.05469069 0.1091933 0.7586223 0 0 128 63
-0.04125324 0.1140114 0.7695211 0 0 128 63
-0.03762302 0.1142725 0.7698498 0 0 128 63
-0.03357556 0.1148281 0.7702703 0 0 128 63
-0.02096254 0.1193307 0.7804959 0 0 128 63
-0.0199869 0.1185849 0.7848114 0 0 128 63
-0.1066041 0.09526856 0.7175921 0 0 128 63
-0.1027642 0.09689689 0.7187979 0 0 128 63
-0.09760121 0.09846101 0.7199779 0 0 128 63
-0.05996796 0.1119343 0.750874 0 0 128 63
-0.05819049 0.112833 0.7551758 0 0 128 63
-0.0550141 0.1141104 0.7593568 0 0 128 63
-0.05221054 0.117297 0.7622883 0 0 128 63
-0.04862994 0.1185752 0.7651911 0 0 128 63
-0.04350707 0.118401 0.7684357 0 0 128 63
-0.03826421 0.1199081 0.7689333 0 0 128 63
-0.03432703 0.1228132 0.7715537 0 0 128 63
-0.03214893 0.1239358 0.7733986 0 0 128 63
-0.1080864 0.1002523 0.7176545 0 0 128 63
-0.1044475 0.1019257 0.7188448 0 0 128 63
-0.09946075 0.1033828 0.7201973 0 0 128 63
-0.09522799 0.1057704 0.7232578 0 0 128 63
-0.06020769 0.1160956 0.7511501 0 0 128 63
-0.05862054 0.1177561 0.7541398 0 0 128 63
-0.0560194 0.1193913 0.7584981 0 0 128 63
-0.05331686 0.1199642 0.7619362 0 0 128 63
-0.04951251 0.1211616 0.765141 0 0 128 63
-0.0449262 0.1229261 0.7680171 0 0 128 63
-0.04082227 0.1240605 0.770182 0 0 128 63
-0.03726888 0.12502 0.77281 0 0 128 63
-0.03323397 0.1270007 0.7755479 0 0 128 63
-0.02892184 0.1299 0.7771184 0 0 128 63
-0.1091735 0.103438 0.7175927 0 0 128 63
-0.1069565 0.106137 0.7192467 0 0 128 63
-0.1020709 0.1078913 0.7211337 0 0 128 63
-0.09774634 0.1097544 0.7223358 0 0 128 63
-0.05785051 0.1227224 0.7543877 0 0 128 63
-0.05596146 0.1240826 0.7571062 0 0 128 63
-0.05447939 0.1242988 0.7618209 0 0 128 63
-0.05104718 0.1252824 0.7648624 0 0 128 63
-0.04694366 0.1265306 0.7682444 0 0 128 63
-0.04311344 0.1266482 0.7710631 0 0 128 63
-0.0406799 0.1271453 0.7729508 0 0 128 63
-0.03356871 0.1296839 0.7787158 0 0 128 63
-0.0325956 0.1300312 0.7795048 0 0 128 63
-0.1082905 0.1107832 0.7193333 0 0 128 63
-0.1040645 0.1122841 0.7214571 0 0 128 63
-0.09880349 0.1132586 0.7224833 0 0 128 63
-0.05723658 0.1288629 0.7568725 0 0 128 63
-0.05569389 0.1297857 0.7611259 0 0 128 63
-0.05354759 0.1314314 0.7641955 0 0 128 63
-0.1094662 0.1154045 0.7201234 0 0 128 63
-0.1056146 0.117414 0.7221329 0 0 128 63
-0.1007725 0.1188585 0.7235732 0 0 128 63
-0.09796503 0.1217103 0.7255473 0 0 128 63
-0.05816409 0.1329549 0.7571348 0 0 128 63
-0.05706093 0.1349651 0.7602876 0 0 128 63
-0.05408338 0.1360175 0.7643509 0 0 128 63
-0.05045179 0.1382103 0.7679081 0 0 128 63
-0.110174 0.118756 0.720376 0 0 128 63
-0.1078858 0.1215289 0.72241 0 0 128 63
-0.1035273 0.1233397 0.7247334 0 0 128 63
-0.09898207 0.1248717 0.7265034 0 0 128 63
-0.09534928 0.1272624 0.7283075 0 0 128 63
-0.08700714 0.1316339 0.7351803 0 0 128 63
-0.05986127 0.1384581 0.7565305 0 0 128 63
-0.05773941 0.1399485 0.7592578 0 0 128 63
-0.05504796 0.1405916 0.7636742 0 0 128 63
-0.05097458 0.1420456 0.7669765 0 0 128 63
-0.04835129 0.1429149 0.7707238 0 0 128 63
-0.04491892 0.1440893 0.7737466 0 0 128 63
-0.1091555 0.1262164 0.7225595 0 0 128 63
-0.1052302 0.127803 0.7247953 0 0 128 63
-0.1012776 0.1291354 0.7273526 0 0 128 63
-0.09709814 0.1310399 0.7284444 0 0 128 63
-0.09140012 0.134418 0.7326169 0 0 128 63
-0.08826205 0.1344501 0.7349114 0 0 128 63
-0.08631 0.136235 0.7367436 0 0 128 63
-0.0586091 0.1445893 0.7594085 0 0 128 63
-0.05594805 0.145176 0.7629684 0 0 128 63
-0.05225036 0.1465813 0.7666149 0 0 128 63
-0.04972681 0.1475091 0.7704546 0 0 128 63
-0.04630518 0.1477211 0.773569 0 0 128 63
-0.1093613 0.1308113 0.7237327 0 0 128 63
-0.1071869 0.1322194 0.725081 0 0 128 63
-0.1035131 0.1335127 0.7278805 0 0 128 63
-0.0990341 0.1353837 0.7304777 0 0 128 63
-0.09460399 0.1372071 0.7321798 0 0 128 63
-0.09033486 0.1384462 0.7349464 0 0 128 63
-0.08701119 0.1394306 0.7374372 0 0 128 63
-0.08281627 0.1428755 0.7411274 0 0 128 63
-0.07948276 0.1444044 0.7435929 0 0 128 63
-0.0710856 0.1469066 0.750287 0 0 128 63
-0.06806681 0.1471575 0.7525448 0 0 128 63
-0.0647988 0.1496462 0.7554973 0 0 128 63
-0.06101355 0.1492146 0.7592759 0 0 128 63
-0.05852118 0.1495301 0.7639264 0 0 128 63
-0.05462566 0.1509534 0.7674067 0 0 128 63
-0.05219176 0.1515909 0.7701659 0 0 128 63
-0.1086392 0.1354213 0.7253162 0 0 128 63
-0.1050309 0.1368231 0.7282676 0 0 128 63
-0.1014691 0.1395309 0.7313166 0 0 128 63
-0.09682199 0.1414919 0.7332238 0 0 128 63
-0.09261248 0.1428415 0.7355527 0 0 128 63
-0.08987567 0.1442227 0.7397518 0 0 128 63
-0.08457956 0.1455881 0.7411283 0 0 128 63
-0.08042261 0.1469812 0.7436037 0 0 128 63
-0.07747909 0.1484988 0.7459922 0 0 128 63
-0.07347009 0.1502865 0.7495938 0 0 128 63
-0.07006356 0.151023 0.7531375 0 0 128 63
-0.06666568 0.1522066 0.7573456 0 0 128 63
-0.06410721 0.1531259 0.7614557 0 0 128 63
-0.06101087 0.1536931 0.7642201 0 0 128 63
-0.05667052 0.1542836 0.7675191 0 0 128 63
-0.1026464 0.1443543 0.7317325 0 0 128 63
-0.09933051 0.1458993 0.7339791 0 0 128 63
-0.0952988 0.1472181 0.736486 0 0 128 63
-0.09123793 0.1486677 0.7397782 0 0 128 63
-0.08729991 0.1499816 0.7423204 0 0 128 63
-0.08453098 0.1517426 0.7451429 0 0 128 63
-0.07961008 0.1534319 0.7474579 0 0 128 63
-0.07523951 0.1545599 0.7490143 0 0 128 63
-0.07144031 0.1554893 0.7536423 0 0 128 63
-0.06922624 0.1566172 0.7582735 0 0 128 63
-0.0661566 0.1578676 0.7614269 0 0 128 63
-0.06274775 0.1592264 0.764223 0 0 128 63
-0.05824873 0.1584516 0.7673245 0 0 128 63
-0.103971 0.1486052 0.7317418 0 0 128 63
-0.1009394 0.1496874 0.7341995 0 0 128 63
-0.09704432 0.152207 0.7368072 0 0 128 63
-0.09298965 0.1538011 0.7396786 0 0 128 63
-0.08967444 0.1550458 0.7427998 0 0 128 63
-0.08614448 0.156307 0.7457141 0 0 128 63
-0.08210567 0.157895 0.7485504 0 0 128 63
-0.07774517 0.1588432 0.7506873 0 0 128 63
-0.07426414 0.1603657 0.7541242 0 0 128 63
-0.07080939 0.1616472 0.7582312 0 0 128 63
-0.06779858 0.1629775 0.7614019 0 0 128 63
-0.06537756 0.1634701 0.7632794 0 0 128 63
-0.09825113 0.1571648 0.7378736 0 0 128 63
-0.09528467 0.1582167 0.7402768 0 0 128 63
-0.09171662 0.1594904 0.7431695 0 0 128 63
-0.08777592 0.1607964 0.7457119 0 0 128 63
-0.08347467 0.1622706 0.7487655 0 0 128 63
-0.08035728 0.1635046 0.7520897 0 0 128 63
-0.07654426 0.1643413 0.7547811 0 0 128 63
-0.0728223 0.1657599 0.7575918 0 0 128 63
-0.06911442 0.1668334 0.761327 0 0 128 63
-0.09553447 0.1614094 0.740827 0 0 128 63
-0.09325573 0.1640009 0.743082 0 0 128 63
-0.08955655 0.1652837 0.7458364 0 0 128 63
-0.08553848 0.1667262 0.7491742 0 0 128 63
-0.08258089 0.1673338 0.7516267 0 0 128 63
-0.07804856 0.1679964 0.7550821 0 0 128 63
-0.07472023 0.169901 0.7579446 0 0 128 63
-0.07167122 0.1709629 0.7604105 0 0 128 63
-0.09384212 0.1674007 0.7434343 0 0 128 63
-0.09076902 0.1691347 0.7460718 0 0 128 63
-0.0870249 0.1709784 0.7492234 0 0 128 63
-0.08441606 0.1727117 0.7515223 0 0 128 63
-0.08010629 0.1723041 0.7545701 0 0 128 63
-0.07655069 0.1735733 0.7574526 0 0 128 63
-0.0874401 0.1759137 0.7500525 0 0 128 63
-0.0856699 0.1772391 0.7516466 0 0 128 63
-0.03066587 0.06155795 0.7677267 0 0 128 63
-0.1000985 0.04119813 0.7162274 0 0 128 63
-0.09553871 0.04204191 0.7176467 0 0 128 63
-0.0918726 0.04356559 0.7189902 0 0 128 63
-0.03368551 0.06433688 0.7661631 0 0 128 63
-0.0324395 0.0638545 0.7696173 0 0 128 63
-0.1009344 0.04364792 0.7161797 0 0 128 63
-0.09800491 0.04556826 0.7185456 0 0 128 63
-0.09271112 0.04714453 0.7196491 0 0 128 63
-0.03946468 0.06782374 0.7633798 0 0 128 63
-0.03626624 0.06796558 0.7656863 0 0 128 63
-0.03428406 0.06850994 0.7697728 0 0 128 63
-0.03142211 0.07080913 0.7730724 0 0 128 63
-0.1012711 0.04799788 0.7169318 0 0 128 63
-0.09914741 0.050703 0.7185407 0 0 128 63
-0.09494063 0.05235481 0.7193987 0 0 128 63
-0.0487375 0.07031113 0.7578208 0 0 128 63
-0.04667634 0.06970024 0.760891 0 0 128 63
-0.04332912 0.0706632 0.7643604 0 0 128 63
-0.04000923 0.07159653 0.7667844 0 0 128 63
-0.03564945 0.0719185 0.7702457 0 0 128 63
-0.1005791 0.05519788 0.7190872 0 0 128 63
-0.09774873 0.05648991 0.7195587 0 0 128 63
-0.0510475 0.07333046 0.7573014 0 0 128 63
-0.04922652 0.07241483 0.7604638 0 0 128 63
-0.04409897 0.07424523 0.7646207 0 0 128 63
-0.1024959 0.05995393 0.7187807 0 0 128 63
-0.09858206 0.06131148 0.7195421 0 0 128 63
-0.05245176 0.07765344 0.7573566 0 0 128 63
-0.0513978 0.07820348 0.7602086 0 0 128 63
-0.1038807 0.06525916 0.7183588 0 0 128 63
-0.09946153 0.06578961 0.7191145 0 0 128 63
-0.05401227 0.0829833 0.7575114 0 0 128 63
-0.05374375 0.08392978 0.7598119 0 0 128 63
-0.02487966 0.09430967 0.7814319 0 0 128 63
-0.1083643 0.06878391 0.7165285 0 0 128 63
-0.1050248 0.06984076 0.7171073 0 0 128 63
-0.05567119 0.08749051 0.7575455 0 0 128 63
-0.05549815 0.08907111 0.7597121 0 0 128 63
-0.03401688 0.09561415 0.7768692 0 0 128 63
-0.03123149 0.09668846 0.7784265 0 0 128 63
-0.0270077 0.09785898 0.7807308 0 0 128 63
-0.1097468 0.07168722 0.7161866 0 0 128 63
-0.106676 0.07405812 0.7165912 0 0 128 63
-0.0557265 0.09025518 0.7566711 0 0 128 63
-0.05474892 0.09314911 0.759725 0 0 128 63
-0.04290199 0.09940598 0.7712628 0 0 128 63
-0.04020745 0.09974235 0.7728004 0 0 128 63
-0.03561106 0.09986543 0.7749203 0 0 128 63
-0.03174445 0.1010508 0.7773601 0 0 128 63
-0.02754456 0.1024691 0.7795402 0 0 128 63
-0.02532032 0.1047063 0.7815172 0 0 128 63
-0.1079535 0.07938281 0.7176402 0 0 128 63
-0.1062768 0.08094445 0.7183214 0 0 128 63
-0.05516508 0.09783613 0.7605266 0 0 128 63
-0.05396572 0.09951477 0.7621452 0 0 128 63
-0.04834291 0.101816 0.7678497 0 0 128 63
-0.04478192 0.1021328 0.7698886 0 0 128 63
-0.04066816 0.1035274 0.7710044 0 0 128 63
-0.03569469 0.103179 0.7736056 0 0 128 63
-0.0280782 0.1058979 0.7797803 0 0 128 63
-0.1092733 0.08384483 0.7171621 0 0 128 63
-0.1067755 0.08502337 0.7176348 0 0 128 63
-0.05610517 0.1031767 0.7593581 0 0 128 63
-0.05414501 0.1035878 0.7624091 0 0 128 63
-0.05073291 0.104732 0.7662731 0 0 128 63
-0.04671487 0.1062046 0.7693235 0 0 128 63
-0.04224136 0.1079869 0.7710692 0 0 128 63
-0.111488 0.08852993 0.7173812 0 0 128 63
-0.1087354 0.08945785 0.7178525 0 0 128 63
-0.05433556 0.1085073 0.7615843 0 0 128 63
-0.05181441 0.1098977 0.7654424 0 0 128 63
-0.04835102 0.1110777 0.7692964 0 0 128 63
-0.04410639 0.1123624 0.7705244 0 0 128 63
-0.1137733 0.09300184 0.7181395 0 0 128 63
-0.110265 0.0947495 0.7183705 0 0 128 63
-0.05244359 0.1145996 0.7644365 0 0 128 63
-0.04894313 0.1158695 0.7674188 0 0 128 63
-0.04639706 0.1160245 0.7687507 0 0 128 63
-0.1148073 0.09775457 0.7184756 0 0 128 63
-0.1124251 0.09874403 0.7188209 0 0 128 63
-0.05420688 0.1204549 0.7640744 0 0 128 63
-0.03908768 0.1265951 0.7765021 0 0 128 63
-0.1169075 0.1032201 0.7181982 0 0 128 63
-0.1133995 0.1040991 0.7186913 0 0 128 63
-0.05544272 0.125799 0.7643992 0 0 128 63
-0.05225262 0.1265398 0.7668942 0 0 128 63
-0.04902795 0.1287789 0.7697579 0 0 128 63
-0.04471341 0.129095 0.7735472 0 0 128 63
-0.04153144 0.1296788 0.7776093 0 0 128 63
-0.03811195 0.1303706 0.7807218 0 0 128 63
-0.03632158 0.1322915 0.7835999 0 0 128 63
-0.1181971 0.1059655 0.7178879 0 0 128 63
-0.1143914 0.1092279 0.7187879 0 0 128 63
-0.05679092 0.1276246 0.7650936 0 0 128 63
-0.05356148 0.130112 0.7668991 0 0 128 63
-0.05035642 0.1320078 0.7699233 0 0 128 63
-0.04664415 0.1334065 0.7736577 0 0 128 63
-0.04433224 0.1340445 0.7776039 0 0 128 63
-0.1162167 0.1135283 0.7192261 0 0 128 63
-0.1126464 0.1155163 0.7203481 0 0 128 63
-0.05141142 0.1354437 0.769549 0 0 128 63
-0.04792869 0.1379677 0.7732955 0 0 128 63
-0.04498813 0.1387534 0.7775066 0 0 128 63
-0.1171931 0.1182877 0.7194123 0 0 128 63
-0.113506 0.1201333 0.7210599 0 0 128 63
-0.04794404 0.1407364 0.7732899 0 0 128 63
-0.04574737 0.14346 0.776302 0 0 128 63
-0.04446772 0.1450845 0.7796522 0 0 128 63
-0.1190372 0.1229294 0.7197671 0 0 128 63
-0.1151566 0.1248517 0.7213936 0 0 128 63
-0.1127991 0.1277755 0.723048 0 0 128 63
-0.05019456 0.1496283 0.7736886 0 0 128 63
-0.04799852 0.1495236 0.777782 0 0 128 63
-0.04525515 0.1482533 0.7798049 0 0 128 63
-0.1212285 0.1270055 0.720503 0 0 128 63
-0.1182469 0.1291488 0.7226084 0 0 128 63
-0.1132408 0.1306717 0.7237678 0 0 128 63
-0.05253962 0.1525089 0.7738984 0 0 128 63
-0.05101472 0.15207 0.7774261 0 0 128 63
-0.1215317 0.1309947 0.7211968 0 0 128 63
-0.1186713 0.133229 0.723794 0 0 128 63
-0.1154632 0.1351684 0.7256331 0 0 128 63
-0.1104746 0.1377988 0.7273204 0 0 128 63
-0.106761 0.1390777 0.7300406 0 0 128 63
-0.06079212 0.1550097 0.7671986 0 0 128 63
-0.05805609 0.1561515 0.7694545 0 0 128 63
-0.05475101 0.1566321 0.7733894 0 0 128 63
-0.05361274 0.1584777 0.7770019 0 0 128 63
-0.1160788 0.1396642 0.7271592 0 0 128 63
-0.1123665 0.1415142 0.7285273 0 0 128 63
-0.1085155 0.1430929 0.7299972 0 0 128 63
-0.1056433 0.1447843 0.7321638 0 0 128 63
-0.0662438 0.1574512 0.7637849 0 0 128 63
-0.06190076 0.1582585 0.7671355 0 0 128 63
-0.05993441 0.1605631 0.769265 0 0 128 63
-0.0566794 0.1614581 0.7732928 0 0 128 63
-0.05457601 0.1618173 0.7770656 0 0 128 63
-0.1146109 0.1458383 0.7287295 0 0 128 63
-0.1103816 0.1475735 0.7301889 0 0 128 63
-0.1066588 0.1491544 0.7324258 0 0 128 63
-0.1026295 0.1516808 0.7359419 0 0 128 63
-0.06739154 0.1642599 0.7645097 0 0 128 63
-0.06527105 0.1638946 0.76709 0 0 128 63
-0.06230053 0.164426 0.7700762 0 0 128 63
-0.05915776 0.1648312 0.7744173 0 0 128 63
-0.1161096 0.1498439 0.729471 0 0 128 63
-0.1130848 0.1516321 0.7315823 0 0 128 63
-0.1081413 0.1532735 0.733045 0 0 128 63
-0.1038184 0.1548687 0.7359636 0 0 128 63
-0.1011569 0.1565322 0.7381276 0 0 128 63
-0.08036342 0.1653615 0.7553077 0 0 128 63
-0.07781836 0.16627 0.7573709 0 0 128 63
-0.07385251 0.1662632 0.7602599 0 0 128 63
-0.07008764 0.1683614 0.7636949 0 0 128 63
-0.06789264 0.1680441 0.7682842 0 0 128 63
-0.1102121 0.1572921 0.7354776 0 0 128 63
-0.1071472 0.1592299 0.7374215 0 0 128 63
-0.1023151 0.160611 0.7391976 0 0 128 63
-0.09863916 0.1626027 0.7414945 0 0 128 63
-0.08233789 0.1681331 0.7545041 0 0 128 63
-0.0794839 0.1696071 0.7571321 0 0 128 63
-0.0749602 0.1711825 0.7605807 0 0 128 63
-0.07210788 0.1714285 0.76386 0 0 128 63
-0.07001677 0.1727377 0.7683157 0 0 128 63
-0.1076939 0.162791 0.7385738 0 0 128 63
-0.1041877 0.1641207 0.7399959 0 0 128 63
-0.1007663 0.1663779 0.7424678 0 0 128 63
-0.09629169 0.1689398 0.7447985 0 0 128 63
-0.09395704 0.1710588 0.7488038 0 0 128 63
-0.08929452 0.1724231 0.7507322 0 0 128 63
-0.08447954 0.1723898 0.7546536 0 0 128 63
-0.08154783 0.1734921 0.757819 0 0 128 63
-0.07821891 0.1748689 0.7605191 0 0 128 63
-0.07422748 0.1758751 0.7640784 0 0 128 63
-0.07118204 0.1771166 0.7683028 0 0 128 63
-0.06840619 0.1795686 0.7706965 0 0 128 63
-0.1015337 0.1700853 0.7447363 0 0 128 63
-0.09900054 0.172705 0.746796 0 0 128 63
-0.09530035 0.1742758 0.7492723 0 0 128 63
-0.09079984 0.175821 0.7505573 0 0 128 63
-0.08588693 0.1772524 0.7545121 0 0 128 63
-0.08388236 0.1784577 0.7586824 0 0 128 63
-0.08024958 0.1796322 0.7614705 0 0 128 63
-0.07617101 0.1810391 0.7641607 0 0 128 63
-0.07281587 0.1824713 0.7680042 0 0 128 63
-0.06964728 0.1835967 0.7708234 0 0 128 63
-0.06748876 0.1865907 0.773335 0 0 128 63
-0.09657195 0.1788697 0.7500524 0 0 128 63
-0.09256873 0.179876 0.7515579 0 0 128 63
-0.0884982 0.1814922 0.7547936 0 0 128 63
-0.08568653 0.1829566 0.7590284 0 0 128 63
-0.08173153 0.1842618 0.7615811 0 0 128 63
-0.07813755 0.1855418 0.7644939 0 0 128 63
-0.07433882 0.1867568 0.7683803 0 0 128 63
-0.07092884 0.1882642 0.7712113 0 0 128 63
-0.06838039 0.1888838 0.7732109 0 0 128 63
-0.09028646 0.1842909 0.7561915 0 0 128 63
-0.08648291 0.1859247 0.7593383 0 0 128 63
-0.08327326 0.1873465 0.7620037 0 0 128 63
-0.08049563 0.188246 0.7642345 0 0 128 63
-0.03161943 0.06421718 0.7726755 0 0 128 63
-0.03021932 0.06525412 0.775472 0 0 128 63
-0.1108049 0.04192045 0.7129943 0 0 128 63
-0.1069597 0.04292968 0.7142664 0 0 128 63
-0.1035076 0.04479772 0.7158265 0 0 128 63
-0.03346154 0.06823736 0.7722548 0 0 128 63
-0.03092948 0.06915227 0.7755687 0 0 128 63
-0.02884784 0.06962958 0.7759367 0 0 128 63
-0.1117807 0.04519358 0.7136629 0 0 128 63
-0.1088411 0.04737793 0.7154075 0 0 128 63
-0.1047366 0.04930183 0.7173366 0 0 128 63
-0.1019311 0.05075911 0.7183426 0 0 128 63
-0.04691571 0.07188429 0.7632849 0 0 128 63
-0.04476693 0.07116522 0.7646862 0 0 128 63
-0.04002762 0.0736001 0.7686988 0 0 128 63
-0.03715581 0.07407546 0.77174 0 0 128 63
-0.03407109 0.07341795 0.7751558 0 0 128 63
-0.1104889 0.05209732 0.7155011 0 0 128 63
-0.1063229 0.05365884 0.7174846 0 0 128 63
-0.1029327 0.05507226 0.7186016 0 0 128 63
-0.04923186 0.07424206 0.7621375 0 0 128 63
-0.04601789 0.07551068 0.7647709 0 0 128 63
-0.04273644 0.07634233 0.768402 0 0 128 63
-0.03951195 0.07720017 0.7731513 0 0 128 63
-0.0366002 0.07788984 0.7756413 0 0 128 63
-0.1118208 0.0564622 0.7153786 0 0 128 63
-0.1073259 0.05822717 0.7164827 0 0 128 63
-0.1048129 0.05920443 0.7181787 0 0 128 63
-0.05095533 0.07850495 0.7632432 0 0 128 63
-0.04824251 0.07880543 0.766422 0 0 128 63
-0.04440168 0.07872222 0.7692022 0 0 128 63
-0.04099226 0.08001691 0.7732426 0 0 128 63
-0.03834578 0.08212931 0.7756559 0 0 128 63
-0.0299277 0.08831891 0.7832108 0 0 128 63
-0.02786919 0.08905375 0.7848796 0 0 128 63
-0.1127591 0.0616177 0.7158771 0 0 128 63
-0.109075 0.06283253 0.717023 0 0 128 63
-0.1063656 0.06375434 0.7180904 0 0 128 63
-0.05348393 0.08262412 0.7634774 0 0 128 63
-0.05236062 0.08466318 0.7660221 0 0 128 63
-0.03803548 0.08865167 0.7773777 0 0 128 63
-0.03516778 0.08936252 0.7790715 0 0 128 63
-0.03117749 0.09072319 0.7815927 0 0 128 63
-0.02676454 0.09161349 0.7829997 0 0 128 63
-0.1141377 0.06591035 0.7156168 0 0 128 63
-0.1107725 0.06730397 0.7161959 0 0 128 63
-0.1072589 0.06637231 0.7180396 0 0 128 63
-0.05448321 0.08743526 0.7625939 0 0 128 63
-0.05233279 0.0892303 0.7667122 0 0 128 63
-0.04931232 0.09112154 0.7693054 0 0 128 63
-0.04425749 0.09245649 0.7737152 0 0 128 63
-0.04030091 0.09239303 0.7756856 0 0 128 63
-0.03573009 0.09381699 0.7764671 0 0 128 63
-0.03086239 0.09423532 0.7801107 0 0 128 63
-0.1162907 0.07132401 0.7154238 0 0 128 63
-0.1126116 0.07270126 0.7157995 0 0 128 63
-0.05461922 0.09247354 0.7630208 0 0 128 63
-0.05258581 0.09392251 0.7657162 0 0 128 63
-0.04934865 0.09568886 0.7682289 0 0 128 63
-0.04558191 0.09634598 0.7717962 0 0 128 63
-0.04069749 0.09697224 0.77357 0 0 128 63
-0.03814742 0.0968817 0.7754079 0 0 128 63
-0.1172216 0.07467237 0.7164571 0 0 128 63
-0.1144712 0.0770105 0.71718 0 0 128 63
-0.1112306 0.07801123 0.7178137 0 0 128 63
-0.05318078 0.09840575 0.765879 0 0 128 63
-0.05026761 0.09981973 0.7678072 0 0 128 63
-0.04717848 0.1001984 0.7702154 0 0 128 63
-0.115678 0.08127132 0.7180465 0 0 128 63
-0.1127886 0.0825769 0.7177252 0 0 128 63
-0.05157724 0.1022782 0.766857 0 0 128 63
-0.1212417 0.08645324 0.7162285 0 0 128 63
-0.1179014 0.08695339 0.7171761 0 0 128 63
-0.1146319 0.08797844 0.7176204 0 0 128 63
-0.122571 0.09034865 0.7161528 0 0 128 63
-0.1188338 0.09143044 0.7164681 0 0 128 63
-0.1161065 0.09229967 0.7175364 0 0 128 63
-0.1241235 0.09489856 0.7160646 0 0 128 63
-0.1206038 0.09592432 0.7165581 0 0 128 63
-0.1171324 0.09702875 0.7178732 0 0 128 63
-0.1252295 0.09813948 0.7160017 0 0 128 63
-0.1228162 0.1003564 0.7170106 0 0 128 63
-0.1186823 0.1015708 0.717785 0 0 128 63
-0.0405075 0.1323433 0.7818194 0 0 128 63
-0.1247929 0.1049258 0.7174184 0 0 128 63
-0.1205809 0.10681 0.718232 0 0 128 63
-0.04317072 0.1343648 0.7803419 0 0 128 63
-0.04142144 0.1350909 0.7827622 0 0 128 63
-0.03759256 0.135613 0.7846937 0 0 128 63
-0.126438 0.1099011 0.7176781 0 0 128 63
-0.1217326 0.1114414 0.7182449 0 0 128 63
-0.04437253 0.138748 0.780471 0 0 128 63
-0.04358408 0.1395392 0.7833247 0 0 128 63
-0.1271107 0.1146646 0.7184199 0 0 128 63
-0.1227803 0.1165125 0.7189797 0 0 128 63
-0.04391003 0.1447908 0.782913 0 0 128 63
-0.04318833 0.1451651 0.7864013 0 0 128 63
-0.1251635 0.1208603 0.7197726 0 0 128 63
-0.04601699 0.1499425 0.7826785 0 0 128 63
-0.04381242 0.149965 0.7866396 0 0 128 63
-0.0414156 0.1507754 0.7891597 0 0 128 63
-0.1265571 0.1255254 0.7203701 0 0 128 63
-0.1241901 0.1288741 0.7212901 0 0 128 63
-0.05096227 0.1532581 0.7800022 0 0 128 63
-0.0489693 0.1535929 0.7834995 0 0 128 63
-0.04610652 0.1527101 0.7861843 0 0 128 63
-0.1247686 0.1314104 0.7222052 0 0 128 63
-0.1211627 0.1341586 0.7234499 0 0 128 63
-0.05279085 0.1574138 0.7797598 0 0 128 63
-0.05098307 0.1584198 0.7834001 0 0 128 63
-0.1257533 0.1359489 0.7239754 0 0 128 63
-0.1220808 0.1383674 0.7247247 0 0 128 63
-0.1188667 0.1398436 0.726427 0 0 128 63
-0.05394915 0.1625333 0.7802038 0 0 128 63
-0.05217233 0.1624771 0.7834995 0 0 128 63
-0.1239904 0.142047 0.7262181 0 0 128 63
-0.1196805 0.144113 0.7274842 0 0 128 63
-0.0636141 0.1663434 0.7727746 0 0 128 63
-0.05995736 0.1668672 0.7759196 0 0 128 63
-0.05616125 0.1659744 0.7790031 0 0 128 63
-0.122452 0.1482835 0.7286436 0 0 128 63
-0.1188731 0.1506674 0.7297433 0 0 128 63
-0.06529656 0.1689097 0.7735002 0 0 128 63
-0.06261453 0.169961 0.7764302 0 0 128 63
-0.1232054 0.1515135 0.7297161 0 0 128 63
-0.1201576 0.1539799 0.7318739 0 0 128 63
-0.1159865 0.1555374 0.7338868 0 0 128 63
-0.1127056 0.1581155 0.7355268 0 0 128 63
-0.06837639 0.1719325 0.7705852 0 0 128 63
-0.06740597 0.1734085 0.7739908 0 0 128 63
-0.06493619 0.1747411 0.7773724 0 0 128 63
-0.1172713 0.1594702 0.7358657 0 0 128 63
-0.1138736 0.1617401 0.7371467 0 0 128 63
-0.1100754 0.1635462 0.7387732 0 0 128 63
-0.1063395 0.1661297 0.7415851 0 0 128 63
-0.06755623 0.1774994 0.7728191 0 0 128 63
-0.06544998 0.1797398 0.7757671 0 0 128 63
-0.06346342 0.1812198 0.7797566 0 0 128 63
-0.1113701 0.1666394 0.7414963 0 0 128 63
-0.1082518 0.1686311 0.743282 0 0 128 63
-0.1039344 0.1710575 0.7444681 0 0 128 63
-0.1021511 0.1729679 0.7462059 0 0 128 63
-0.06862786 0.1827587 0.7728845 0 0 128 63
-0.06631854 0.1841581 0.775276 0 0 128 63
-0.0644879 0.1843877 0.7789723 0 0 128 63
-0.1064304 0.1746132 0.7459812 0 0 128 63
-0.1021817 0.1766857 0.7477226 0 0 128 63
-0.09906003 0.1791666 0.7498803 0 0 128 63
-0.09367189 0.1818331 0.7544188 0 0 128 63
-0.09262398 0.1822072 0.7552685 0 0 128 63
-0.0761933 0.1880725 0.768589 0 0 128 63
-0.07078984 0.1856492 0.7719716 0 0 128 63
-0.06769416 0.1893709 0.7762001 0 0 128 63
-0.06715241 0.1890381 0.7791753 0 0 128 63
-0.09850171 0.1822418 0.7514958 0 0 128 63
-0.09530702 0.1835918 0.7539899 0 0 128 63
-0.09220919 0.1856446 0.757198 0 0 128 63
-0.0889487 0.1877367 0.7604737 0 0 128 63
-0.08531967 0.1897752 0.7635862 0 0 128 63
-0.08041582 0.1897028 0.7661998 0 0 128 63
-0.07706222 0.1908217 0.7694252 0 0 128 63
-0.07341322 0.1923009 0.7725917 0 0 128 63
-0.07071045 0.1930755 0.7754629 0 0 128 63
-0.09358242 0.1887514 0.759007 0 0 128 63
-0.09096971 0.1902111 0.7608266 0 0 128 63
-0.08552304 0.1927653 0.7644831 0 0 128 63
-0.08325967 0.1940579 0.7674329 0 0 128 63
-0.07982507 0.1953382 0.7705182 0 0 128 63
-0.07620189 0.1965719 0.7737828 0 0 128 63
-0.07297638 0.1957697 0.7764741 0 0 128 63
-0.08661082 0.1972472 0.7656169 0 0 128 63
-0.08482608 0.1984151 0.7671856 0 0 128 63
-0.07944986 0.1992767 0.7687846 0 0 128 63
-0.07815078 0.1995241 0.7723052 0 0 128 63
-0.02944294 0.06668185 0.781539 0 0 128 63
-0.1166623 0.04138926 0.7123787 0 0 128 63
-0.113914 0.04186267 0.7138612 0 0 128 63
-0.03066054 0.06989585 0.7815983 0 0 128 63
-0.02956793 0.07062955 0.7861668 0 0 128 63
-0.1226558 0.0416709 0.7124796 0 0 128 63
-0.1187316 0.04363146 0.7124334 0 0 128 63
-0.1149697 0.04512027 0.7138388 0 0 128 63
-0.03460494 0.0739225 0.7792692 0 0 128 63
-0.03241366 0.07444292 0.7817128 0 0 128 63
-0.03045556 0.07524884 0.7865409 0 0 128 63
-0.0275692 0.07701065 0.7879998 0 0 128 63
-0.1248839 0.04820006 0.7123529 0 0 128 63
-0.121073 0.04799806 0.7129867 0 0 128 63
-0.1158995 0.04957479 0.7145182 0 0 128 63
-0.04236704 0.07819523 0.7743399 0 0 128 63
-0.03628668 0.07815903 0.7792351 0 0 128 63
-0.03465787 0.07864694 0.7830287 0 0 128 63
-0.03067839 0.08042559 0.7852583 0 0 128 63
-0.02757704 0.08128449 0.7864572 0 0 128 63
-0.1262401 0.05217433 0.7122758 0 0 128 63
-0.1229765 0.05283388 0.7139249 0 0 128 63
-0.1177312 0.05524199 0.7145066 0 0 128 63
-0.1152535 0.05727193 0.7164184 0 0 128 63
-0.0507817 0.08074237 0.7692944 0 0 128 63
-0.04720172 0.08084702 0.7721232 0 0 128 63
-0.04312196 0.08185513 0.7747188 0 0 128 63
-0.03847095 0.08366807 0.7784344 0 0 128 63
-0.0360699 0.08415377 0.7818689 0 0 128 63
-0.03220165 0.08519466 0.7843428 0 0 128 63
-0.02901796 0.08656969 0.7859898 0 0 128 63
-0.1248604 0.05771129 0.7131528 0 0 128 63
-0.1191171 0.05958565 0.7143427 0 0 128 63
-0.116373 0.06055227 0.7163547 0 0 128 63
-0.05186307 0.0834609 0.7690837 0 0 128 63
-0.04930839 0.08460423 0.7728477 0 0 128 63
-0.04483747 0.08610768 0.774878 0 0 128 63
-0.04115573 0.08719563 0.7772866 0 0 128 63
-0.1291462 0.06069061 0.7121105 0 0 128 63
-0.1264032 0.06217232 0.713992 0 0 128 63
-0.120792 0.06393346 0.7148081 0 0 128 63
-0.1179337 0.06512584 0.7162659 0 0 128 63
-0.05261162 0.08700155 0.7693118 0 0 128 63
-0.04970631 0.0889523 0.7721564 0 0 128 63
-0.0465275 0.08988845 0.7742406 0 0 128 63
-0.1263854 0.06613454 0.7153711 0 0 128 63
-0.1235843 0.06827761 0.7166457 0 0 128 63
-0.1201458 0.07067755 0.7166818 0 0 128 63
-0.05029088 0.09337712 0.772046 0 0 128 63
-0.1250612 0.07318252 0.7176378 0 0 128 63
-0.1216356 0.07509327 0.7177411 0 0 128 63
-0.1270436 0.07839897 0.7177037 0 0 128 63
-0.1236614 0.07943279 0.7183084 0 0 128 63
-0.1195633 0.08113921 0.7187502 0 0 128 63
-0.1289767 0.08320233 0.7173963 0 0 128 63
-0.1246068 0.08412729 0.7174898 0 0 128 63
-0.1208706 0.08382174 0.7184125 0 0 128 63
-0.1305082 0.08745284 0.7169401 0 0 128 63
-0.126657 0.08854689 0.7171663 0 0 128 63
-0.1323519 0.09190904 0.7162336 0 0 128 63
-0.1280538 0.09388762 0.7167436 0 0 128 63
-0.1446109 0.0948465 0.7074128 0 0 128 63
-0.1418193 0.09581034 0.7093538 0 0 128 63
-0.1334324 0.09658597 0.7157496 0 0 128 63
-0.1286951 0.09886829 0.7164744 0 0 128 63
-0.1468168 0.09794067 0.7066292 0 0 128 63
-0.1428362 0.09908664 0.7092066 0 0 128 63
-0.1403629 0.1013943 0.7132691 0 0 128 63
-0.1350826 0.1019077 0.7158509 0 0 128 63
-0.1302018 0.1032883 0.7165996 0 0 128 63
-0.1275546 0.1034092 0.7180324 0 0 128 63
-0.0426752 0.1366812 0.7875267 0 0 128 63
-0.04110324 0.1372424 0.7888011 0 0 128 63
-0.1523056 0.1019327 0.704688 0 0 128 63
-0.1486177 0.1022704 0.7066144 0 0 128 63
-0.1445754 0.103648 0.7092473 0 0 128 63
-0.142017 0.1047138 0.7128247 0 0 128 63
-0.1366742 0.106621 0.7171561 0 0 128 63
-0.1327523 0.1077161 0.7173291 0 0 128 63
-0.1297935 0.1099699 0.7179052 0 0 128 63
-0.04378921 0.1399458 0.7874633 0 0 128 63
-0.04247341 0.1403253 0.789628 0 0 128 63
-0.04052582 0.1420376 0.79158 0 0 128 63
-0.1533742 0.1043749 0.7044692 0 0 128 63
-0.1497439 0.1068949 0.7071209 0 0 128 63
-0.1457619 0.1081602 0.7092674 0 0 128 63
-0.1433252 0.1089754 0.7128484 0 0 128 63
-0.1375783 0.1092705 0.7171046 0 0 128 63
-0.1341977 0.1117538 0.7184601 0 0 128 63
-0.1305468 0.114437 0.7190096 0 0 128 63
-0.0425337 0.1445182 0.7897864 0 0 128 63
-0.04110894 0.1453406 0.7909685 0 0 128 63
-0.1501971 0.1112167 0.7070952 0 0 128 63
-0.1478296 0.1125313 0.7092481 0 0 128 63
-0.1448114 0.113323 0.7127622 0 0 128 63
-0.135132 0.1173812 0.7199085 0 0 128 63
-0.1309622 0.1189998 0.7199247 0 0 128 63
-0.04311553 0.1483069 0.7898716 0 0 128 63
-0.04206756 0.148681 0.7907212 0 0 128 63
-0.1365934 0.1199189 0.7202642 0 0 128 63
-0.1342809 0.1232046 0.7209414 0 0 128 63
-0.1303639 0.125176 0.7209762 0 0 128 63
-0.04869732 0.1543289 0.7871842 0 0 128 63
-0.0464845 0.154634 0.7891815 0 0 128 63
-0.1360551 0.1281398 0.7219125 0 0 128 63
-0.1315896 0.1295061 0.7223343 0 0 128 63
-0.1287381 0.1318955 0.7237021 0 0 128 63
-0.05058572 0.157779 0.7869586 0 0 128 63
-0.04958946 0.15882 0.7906052 0 0 128 63
-0.04835433 0.1588486 0.7935045 0 0 128 63
-0.1373771 0.1328894 0.7224877 0 0 128 63
-0.1333474 0.1339702 0.7239645 0 0 128 63
-0.1291938 0.1364335 0.7250398 0 0 128 63
-0.05255088 0.16394 0.7865795 0 0 128 63
-0.05054495 0.1641539 0.7895587 0 0 128 63
-0.04903439 0.1648463 0.7918673 0 0 128 63
-0.1350586 0.1372551 0.7251066 0 0 128 63
-0.1317641 0.1402227 0.7264264 0 0 128 63
-0.1278263 0.1418781 0.7269703 0 0 128 63
-0.05845633 0.1676703 0.7831306 0 0 128 63
-0.05653188 0.1672141 0.7871746 0 0 128 63
-0.05245623 0.1678182 0.789803 0 0 128 63
-0.1324118 0.1445544 0.7279545 0 0 128 63
-0.1281771 0.1466767 0.7283011 0 0 128 63
-0.1254601 0.14821 0.7298323 0 0 128 63
-0.06340554 0.170362 0.7801407 0 0 128 63
-0.06256691 0.1705482 0.7840665 0 0 128 63
-0.1309409 0.1510196 0.7304671 0 0 128 63
-0.1265771 0.1527422 0.7309564 0 0 128 63
-0.1240922 0.1545367 0.7322801 0 0 128 63
-0.06472942 0.1742416 0.7800654 0 0 128 63
-0.06305578 0.1751086 0.783057 0 0 128 63
-0.06167528 0.1757337 0.7869123 0 0 128 63
-0.1279307 0.1567053 0.7324966 0 0 128 63
-0.1239783 0.1582041 0.7341029 0 0 128 63
-0.120476 0.1600344 0.736634 0 0 128 63
-0.0636442 0.1792677 0.7826381 0 0 128 63
-0.06248781 0.1813345 0.7873299 0 0 128 63
-0.1225314 0.16348 0.7395585 0 0 128 63
-0.1183816 0.1654859 0.7406834 0 0 128 63
-0.1147882 0.1680585 0.7426654 0 0 128 63
-0.1116252 0.1706639 0.7450649 0 0 128 63
-0.06583104 0.1848999 0.7838638 0 0 128 63
-0.06478855 0.1846153 0.7874349 0 0 128 63
-0.1199639 0.1686345 0.7435557 0 0 128 63
-0.1163309 0.1719741 0.7446622 0 0 128 63
-0.1132479 0.1734253 0.746473 0 0 128 63
-0.1088884 0.1756039 0.7481924 0 0 128 63
-0.0683178 0.1886325 0.7842107 0 0 128 63
-0.06082109 0.1915454 0.7916012 0 0 128 63
-0.05912992 0.1916789 0.7923401 0 0 128 63
-0.114407 0.1779427 0.7497403 0 0 128 63
-0.1099628 0.1785882 0.7496318 0 0 128 63
-0.1061174 0.1804064 0.7527117 0 0 128 63
-0.1041459 0.1838511 0.7566863 0 0 128 63
-0.09900293 0.1855454 0.7580966 0 0 128 63
-0.09671733 0.1862824 0.7595119 0 0 128 63
-0.07165304 0.1938225 0.7799287 0 0 128 63
-0.07057014 0.1930043 0.7829423 0 0 128 63
-0.1046967 0.1867792 0.7584245 0 0 128 63
-0.1008051 0.1878106 0.7592202 0 0 128 63
-0.09804407 0.1895922 0.7609819 0 0 128 63
-0.07673797 0.1968821 0.7765046 0 0 128 63
-0.0737423 0.1972084 0.7787628 0 0 128 63
-0.07149568 0.197515 0.7804706 0 0 128 63
-0.09763995 0.1920282 0.7614155 0 0 128 63
-0.02926531 0.07134265 0.7898687 0 0 128 63
-0.02832872 0.07221459 0.7920098 0 0 128 63
-0.1295345 0.04107459 0.7119439 0 0 128 63
-0.1263361 0.04166102 0.713151 0 0 128 63
-0.0283874 0.07500598 0.7916632 0 0 128 63
-0.1312508 0.04469848 0.7119435 0 0 128 63
-0.1277414 0.04556903 0.7130648 0 0 128 63
-0.1326394 0.04799572 0.712946 0 0 128 63
-0.1292053 0.05109513 0.713757 0 0 128 63
-0.1432355 0.0526346 0.7062868 0 0 128 63
-0.1405916 0.05407377 0.7085438 0 0 128 63
-0.1353517 0.05594425 0.7127917 0 0 128 63
-0.131613 0.05549978 0.713999 0 0 128 63
-0.1432526 0.05635618 0.7056894 0 0 128 63
-0.1407046 0.05733229 0.7088492 0 0 128 63
-0.136984 0.05894554 0.7114513 0 0 128 63
-0.1324732 0.06073041 0.7131799 0 0 128 63
-0.1295941 0.06365819 0.7149816 0 0 128 63
-0.1449156 0.05985472 0.7067178 0 0 128 63
-0.1412476 0.06116407 0.7096915 0 0 128 63
-0.1386277 0.06209931 0.7118155 0 0 128 63
-0.1346424 0.0646643 0.7145532 0 0 128 63
-0.1300022 0.06668282 0.716007 0 0 128 63
-0.1275804 0.06809238 0.7174661 0 0 128 63
-0.1319813 0.0705246 0.7173332 0 0 128 63
-0.1286738 0.07212985 0.7180669 0 0 128 63
-0.1336182 0.07536629 0.7178796 0 0 128 63
-0.130343 0.07672518 0.7180613 0 0 128 63
-0.1357381 0.08073029 0.7170752 0 0 128 63
-0.1317402 0.08108146 0.7177724 0 0 128 63
-0.136725 0.08558758 0.7160714 0 0 128 63
-0.1338688 0.08652067 0.7171085 0 0 128 63
-0.1413517 0.08855499 0.7152673 0 0 128 63
-0.1377765 0.09029117 0.7155445 0 0 128 63
-0.1520887 0.09287409 0.7082223 0 0 128 63
-0.148928 0.09382814 0.7090668 0 0 128 63
-0.1422056 0.09366153 0.7137484 0 0 128 63
-0.1392953 0.09493955 0.7153986 0 0 128 63
-0.1571688 0.09442621 0.7050853 0 0 128 63
-0.153392 0.09529401 0.7069883 0 0 128 63
-0.1427833 0.09886324 0.7134416 0 0 128 63
-0.1403619 0.0992322 0.7152909 0 0 128 63
-0.1381392 0.09903489 0.7168657 0 0 128 63
-0.1570562 0.09935459 0.70423 0 0 128 63
-0.1535122 0.09905189 0.705665 0 0 128 63
-0.1414569 0.1046231 0.715729 0 0 128 63
-0.1398029 0.1053864 0.7171097 0 0 128 63
-0.15744 0.1024418 0.7035795 0 0 128 63
-0.1438853 0.1105761 0.7155758 0 0 128 63
-0.1411137 0.1105644 0.7179708 0 0 128 63
-0.1384617 0.1126584 0.7206985 0 0 128 63
-0.1451795 0.1130774 0.7174714 0 0 128 63
-0.1430438 0.1134291 0.7203672 0 0 128 63
-0.1402621 0.1153894 0.7220051 0 0 128 63
-0.1397045 0.1215296 0.721827 0 0 128 63
-0.1409549 0.1262118 0.7218844 0 0 128 63
-0.1393282 0.1266347 0.7223281 0 0 128 63
-0.04965499 0.1601318 0.7953678 0 0 128 63
-0.1440862 0.1329712 0.7240887 0 0 128 63
-0.1408841 0.1313399 0.7225875 0 0 128 63
-0.04955432 0.1622483 0.7959266 0 0 128 63
-0.1409633 0.1363957 0.7244756 0 0 128 63
-0.1379819 0.1392738 0.7264174 0 0 128 63
-0.1426751 0.1396862 0.725818 0 0 128 63
-0.1397207 0.1424056 0.7274762 0 0 128 63
-0.1364855 0.1444337 0.7291107 0 0 128 63
-0.0632427 0.1687872 0.7887076 0 0 128 63
-0.06309888 0.1718108 0.7895058 0 0 128 63
-0.1370644 0.1485734 0.7305469 0 0 128 63
-0.1344254 0.151066 0.7315038 0 0 128 63
-0.06219658 0.1765236 0.7908846 0 0 128 63
-0.0595161 0.1782912 0.7936031 0 0 128 63
-0.1387729 0.1518522 0.7322909 0 0 128 63
-0.1349593 0.1551126 0.7336607 0 0 128 63
-0.1323152 0.1572684 0.7344641 0 0 128 63
-0.0624961 0.1804561 0.7909207 0 0 128 63
-0.06009343 0.1816223 0.7937173 0 0 128 63
-0.1361633 0.1579853 0.7355993 0 0 128 63
-0.13264 0.158757 0.7351979 0 0 128 63
-0.1278522 0.1619523 0.7394202 0 0 128 63
-0.1259023 0.164851 0.7415061 0 0 128 63
-0.1236438 0.1663084 0.7428572 0 0 128 63
-0.06515911 0.1861173 0.7903409 0 0 128 63
-0.06174412 0.1862371 0.7929624 0 0 128 63
-0.059414 0.1870076 0.7944179 0 0 128 63
-0.1265494 0.1674964 0.7435288 0 0 128 63
-0.1236207 0.1698932 0.7451344 0 0 128 63
-0.1205527 0.1725072 0.7465316 0 0 128 63
-0.07037559 0.1906668 0.7872676 0 0 128 63
-0.06714615 0.1898408 0.7897016 0 0 128 63
-0.06374344 0.1915128 0.7922954 0 0 128 63
-0.1246562 0.1724959 0.7473137 0 0 128 63
-0.1212595 0.1751516 0.7481959 0 0 128 63
-0.1178647 0.1771217 0.7508074 0 0 128 63
-0.1147991 0.1797625 0.7523888 0 0 128 63
-0.07247809 0.1943703 0.7870877 0 0 128 63
-0.06869164 0.1941306 0.7900232 0 0 128 63
-0.06515035 0.1950035 0.7926997 0 0 128 63
-0.1102808 0.1830984 0.7577055 0 0 128 63
-0.1087508 0.1847143 0.7596107 0 0 128 63
-0.07351223 0.1961449 0.7870767 0 0 128 63
-0.07165578 0.1968865 0.7890192 0 0 128 63
-0.1340824 0.04009899 0.7126004 0 0 128 63
-0.1415469 0.04058635 0.7110471 0 0 128 63
-0.1385026 0.04237936 0.7117893 0 0 128 63
-0.1354028 0.04337564 0.712704 0 0 128 63
-0.1440274 0.04670693 0.7106427 0 0 128 63
-0.1405568 0.04687433 0.712092 0 0 128 63
-0.1362197 0.04848757 0.7134382 0 0 128 63
-0.1517552 0.04916951 0.7026984 0 0 128 63
-0.1484062 0.04990514 0.7049685 0 0 128 63
-0.1448321 0.05002064 0.7084135 0 0 128 63
-0.1410353 0.05140944 0.7113848 0 0 128 63
-0.1370754 0.0528677 0.7137066 0 0 128 63
-0.153553 0.05261613 0.7028177 0 0 128 63
-0.1507651 0.05364582 0.705645 0 0 128 63
-0.1475844 0.05467775 0.706522 0 0 128 63
-0.1595901 0.05676535 0.7011869 0 0 128 63
-0.1565019 0.05680308 0.7035861 0 0 128 63
-0.1520254 0.0569759 0.7065389 0 0 128 63
-0.1477725 0.05949184 0.7086074 0 0 128 63
-0.1443586 0.06180716 0.7104031 0 0 128 63
-0.1409189 0.06388514 0.7134316 0 0 128 63
-0.1380599 0.06553563 0.7155342 0 0 128 63
-0.1617645 0.06043801 0.7008637 0 0 128 63
-0.1587327 0.06107445 0.7032194 0 0 128 63
-0.1531465 0.06338173 0.7078199 0 0 128 63
-0.1507858 0.06421559 0.7097316 0 0 128 63
-0.1468361 0.06544936 0.7124358 0 0 128 63
-0.1429035 0.06697764 0.7152711 0 0 128 63
-0.1389272 0.06827818 0.717209 0 0 128 63
-0.1361232 0.0710569 0.7182119 0 0 128 63
-0.1633528 0.06494999 0.7005834 0 0 128 63
-0.1597894 0.06623836 0.7036332 0 0 128 63
-0.156092 0.06770688 0.706665 0 0 128 63
-0.1523788 0.06888376 0.7096411 0 0 128 63
-0.1495591 0.06980777 0.7119081 0 0 128 63
-0.144365 0.0695153 0.7156268 0 0 128 63
-0.1402051 0.07239929 0.7184812 0 0 128 63
-0.1369297 0.07485585 0.7184951 0 0 128 63
-0.1643705 0.07041878 0.7000913 0 0 128 63
-0.1613284 0.07142623 0.7031205 0 0 128 63
-0.1579988 0.07276493 0.706435 0 0 128 63
-0.1544046 0.07394102 0.7090726 0 0 128 63
-0.1514131 0.07294384 0.7112761 0 0 128 63
-0.141789 0.07880452 0.7187955 0 0 128 63
-0.1382346 0.07810539 0.7182893 0 0 128 63
-0.1650129 0.07506728 0.6993337 0 0 128 63
-0.1619945 0.07643107 0.7017415 0 0 128 63
-0.1582105 0.07776372 0.7046303 0 0 128 63
-0.155774 0.07871427 0.7077428 0 0 128 63
-0.1429876 0.08357196 0.7173371 0 0 128 63
-0.1660403 0.07945612 0.6995912 0 0 128 63
-0.1634407 0.08096987 0.7017492 0 0 128 63
-0.1596302 0.08243299 0.7044215 0 0 128 63
-0.1566577 0.08360571 0.7079319 0 0 128 63
-0.155966 0.08628603 0.7110171 0 0 128 63
-0.1632046 0.08492678 0.7029125 0 0 128 63
-0.1610962 0.08709294 0.7042468 0 0 128 63
-0.1571265 0.08846283 0.7069998 0 0 128 63
-0.1544042 0.08976313 0.7108554 0 0 128 63
-0.1509343 0.09227924 0.7135417 0 0 128 63
-0.1647868 0.08956343 0.7028225 0 0 128 63
-0.1619911 0.09135343 0.704152 0 0 128 63
-0.1588206 0.09230562 0.7065414 0 0 128 63
-0.1547452 0.09376043 0.7098454 0 0 128 63
-0.1623891 0.09549012 0.7046707 0 0 128 63
-0.1608172 0.09605126 0.705945 0 0 128 63
-0.1489117 0.1139132 0.7199768 0 0 128 63
-0.1451965 0.1154419 0.7225319 0 0 128 63
-0.1427316 0.1173686 0.724015 0 0 128 63
-0.149913 0.1153033 0.7220829 0 0 128 63
-0.1471257 0.1174349 0.7240998 0 0 128 63
-0.1445041 0.119945 0.7245724 0 0 128 63
-0.1477158 0.1243675 0.7257628 0 0 128 63
-0.1461685 0.1282677 0.7252678 0 0 128 63
-0.145949 0.1371321 0.7262021 0 0 128 63
-0.1496957 0.1407512 0.7280766 0 0 128 63
-0.1466067 0.1402452 0.7271917 0 0 128 63
-0.1425174 0.1443016 0.7303472 0 0 128 63
-0.06560597 0.1695932 0.7928332 0 0 128 63
-0.06522307 0.1699136 0.7944443 0 0 128 63
-0.1504061 0.142833 0.7280362 0 0 128 63
-0.1477669 0.1449741 0.7288777 0 0 128 63
-0.1445807 0.1464868 0.7311063 0 0 128 63
-0.1417776 0.1490241 0.7319693 0 0 128 63
-0.0661433 0.1726105 0.7943919 0 0 128 63
-0.1493684 0.1484049 0.7300702 0 0 128 63
-0.1460962 0.1505668 0.7325915 0 0 128 63
-0.1417072 0.1529944 0.7338301 0 0 128 63
-0.139394 0.1558195 0.7352649 0 0 128 63
-0.1465088 0.1543795 0.7335246 0 0 128 63
-0.144018 0.1559505 0.7352808 0 0 128 63
-0.14063 0.1589436 0.7375973 0 0 128 63
-0.136227 0.1607471 0.7397819 0 0 128 63
-0.1327138 0.1623502 0.741946 0 0 128 63
-0.1411937 0.1629361 0.7393606 0 0 128 63
-0.1382551 0.164174 0.7409472 0 0 128 63
-0.13354 0.1655767 0.7430274 0 0 128 63
-0.130329 0.1689587 0.7453884 0 0 128 63
-0.1417948 0.1660759 0.7396424 0 0 128 63
-0.1396702 0.1674288 0.7415012 0 0 128 63
-0.1357653 0.1690775 0.7447253 0 0 128 63
-0.132389 0.1722479 0.7470742 0 0 128 63
-0.1282319 0.1735723 0.7485725 0 0 128 63
-0.1293807 0.176452 0.7510698 0 0 128 63
-0.1252158 0.177955 0.7525623 0 0 128 63
-0.1228468 0.1796891 0.7550642 0 0 128 63
-0.1188191 0.1813925 0.7582226 0 0 128 63
-0.1154594 0.1834677 0.7610633 0 0 128 63
-0.1476004 0.04096505 0.7117558 0 0 128 63
-0.1445187 0.04146899 0.7118523 0 0 128 63
-0.149808 0.0445673 0.7092949 0 0 128 63
-0.1460077 0.04481278 0.7110302 0 0 128 63
-0.1498299 0.04667702 0.7076652 0 0 128 63
-0.1612507 0.05756754 0.7018384 0 0 128 63
-0.157034 0.05688241 0.705384 0 0 128 63
-0.1541362 0.05878526 0.7075548 0 0 128 63
-0.1512202 0.06114817 0.7099702 0 0 128 63
-0.158338 0.0619511 0.7049665 0 0 128 63
-0.1559512 0.06243156 0.7068163 0 0 128 63
-0.1478605 0.06680588 0.7137163 0 0 128 63
-0.1566963 0.06513786 0.7068938 0 0 128 63
-0.1494205 0.07051559 0.7151605 0 0 128 63
-0.1466239 0.07178444 0.7178186 0 0 128 63
-0.1431771 0.07338038 0.7196443 0 0 128 63
-0.1584649 0.07204331 0.7071882 0 0 128 63
-0.1544717 0.07501209 0.7115346 0 0 128 63
-0.1517285 0.07347637 0.7143145 0 0 128 63
-0.1472393 0.07485035 0.7197893 0 0 128 63
-0.1448455 0.07674839 0.7199556 0 0 128 63
-0.1561002 0.07861272 0.7123958 0 0 128 63
-0.1466635 0.08088878 0.7194961 0 0 128 63
-0.1569411 0.08319983 0.7125352 0 0 128 63
-0.1569241 0.08433551 0.714486 0 0 128 63
-0.150636 0.08590651 0.7189049 0 0 128 63
-0.1487504 0.08613187 0.7195969 0 0 128 63
-0.1559424 0.08718188 0.7150153 0 0 128 63
-0.1523561 0.08973727 0.717376 0 0 128 63
-0.1499405 0.08882901 0.7197674 0 0 128 63
-0.1541156 0.1159181 0.7241946 0 0 128 63
-0.14972 0.1190774 0.7252913 0 0 128 63
-0.1473468 0.1209146 0.7264984 0 0 128 63
-0.1515987 0.1227406 0.7265449 0 0 128 63
-0.1477988 0.1222394 0.7264727 0 0 128 63
-0.1525224 0.1274777 0.7278268 0 0 128 63
-0.1516601 0.1296391 0.7291307 0 0 128 63
-0.1533861 0.1312521 0.7282426 0 0 128 63
-0.152157 0.133422 0.7291327 0 0 128 63
-0.1559047 0.1386329 0.7280993 0 0 128 63
-0.1531771 0.1379132 0.7288212 0 0 128 63
-0.06611857 0.1697533 0.7995979 0 0 128 63
-0.06408045 0.1701733 0.8022583 0 0 128 63
-0.1538316 0.1424738 0.728918 0 0 128 63
-0.06748399 0.1737546 0.7995203 0 0 128 63
-0.06534073 0.1761634 0.8027133 0 0 128 63
-0.1521167 0.1494224 0.7314467 0 0 128 63
-0.148595 0.1515185 0.7326064 0 0 128 63
-0.0647448 0.1778622 0.8035372 0 0 128 63
-0.1500193 0.1548404 0.7339481 0 0 128 63
-0.1462518 0.1580464 0.7364404 0 0 128 63
-0.1439665 0.1594868 0.7378072 0 0 128 63
-0.1505846 0.1581723 0.7356186 0 0 128 63
