# .PCD v.7 - Point Cloud Data file format
VERSION .7
FIELDS x y z _
SIZE 4 4 4 1
TYPE F F F U
COUNT 1 1 1 4
WIDTH 1118
HEIGHT 1
VIEWPOINT 0 0 0 1 0 0 0
POINTS 1118
DATA ascii
-0.1382446 0.07983398 0.7233562 0 0 128 63
-0.1358643 0.078125 0.7208271 0 0 128 63
-0.1390991 0.08389282 0.7231121 0 0 128 63
-0.1411743 0.08447266 0.7199535 0 0 128 63
-0.1411743 0.08459473 0.7095242 0 0 128 63
-0.1419067 0.08804321 0.7091236 0 0 128 63
-0.1442261 0.0914917 0.7081242 0 0 128 63
-0.1431885 0.09384155 0.7058086 0 0 128 63
-0.1448975 0.09747314 0.704977 0 0 128 63
-0.1472168 0.1039734 0.7308102 0 0 128 63
-0.1472778 0.1076355 0.7303295 0 0 128 63
-0.1491699 0.1120605 0.7301769 0 0 128 63
-0.1509399 0.1173401 0.7306919 0 0 128 63
-0.152832 0.1227112 0.7316647 0 0 128 63
-0.1520996 0.120636 0.7306728 0 0 128 63
-0.1539917 0.1265259 0.7327061 0 0 128 63
-0.1553955 0.1312561 0.7331867 0 0 128 63
-0.15625 0.1348267 0.7331448 0 0 128 63
-0.114563 0.02615356 0.7104549 0 0 128 63
-0.1153564 0.02874756 0.7102642 0 0 128 63
-0.1171265 0.03323364 0.7109165 0 0 128 63
-0.1190186 0.03839111 0.7109509 0 0 128 63
-0.1203003 0.04302979 0.7117481 0 0 128 63
-0.1210327 0.04748535 0.7137775 0 0 128 63
-0.1226196 0.0491333 0.7118244 0 0 128 63
-0.1229858 0.05276489 0.7149525 0 0 128 63
-0.1245728 0.05169678 0.7115269 0 0 128 63
-0.1246338 0.05722046 0.7153835 0 0 128 63
-0.1257324 0.05493164 0.7118435 0 0 128 63
-0.126709 0.06216431 0.7158527 0 0 128 63
-0.1282349 0.06726074 0.7176876 0 0 128 63
-0.1287231 0.06643677 0.7167339 0 0 128 63
-0.1306152 0.07177734 0.7177067 0 0 128 63
-0.1292725 0.06973267 0.7166805 0 0 128 63
-0.1315308 0.07598877 0.7176495 0 0 128 63
-0.1297607 0.07647705 0.716547 0 0 128 63
-0.1345215 0.08215332 0.7226658 0 0 128 63
-0.1329956 0.07965088 0.7184391 0 0 128 63
-0.1309814 0.07977295 0.7165279 0 0 128 63
-0.1361084 0.08511353 0.7226772 0 0 128 63
-0.1339722 0.08563232 0.7202969 0 0 128 63
-0.1340332 0.08782959 0.7134914 0 0 128 63
-0.1366577 0.08654785 0.7096462 0 0 128 63
-0.1345215 0.08966064 0.7138042 0 0 128 63
-0.137207 0.09024048 0.7096615 0 0 128 63
-0.1383057 0.0947876 0.7087231 0 0 128 63
-0.1400757 0.0949707 0.7056217 0 0 128 63
-0.1396484 0.09957886 0.7087917 0 0 128 63
-0.1417236 0.09866333 0.7052822 0 0 128 63
-0.140564 0.1065063 0.7173939 0 0 128 63
-0.1409912 0.1031189 0.7104778 0 0 128 63
-0.1439209 0.1095581 0.7281284 0 0 128 63
-0.1411743 0.109436 0.7238598 0 0 128 63
-0.1447754 0.1142883 0.7283268 0 0 128 63
-0.1426392 0.112854 0.7253551 0 0 128 63
-0.1460571 0.118866 0.7290287 0 0 128 63
-0.1479492 0.1235962 0.7302189 0 0 128 63
-0.1491699 0.1289673 0.7313213 0 0 128 63
-0.1484375 0.1269836 0.7303257 0 0 128 63
-0.1508179 0.1330566 0.7336216 0 0 128 63
-0.1519165 0.1376953 0.7342587 0 0 128 63
-0.151062 0.1411133 0.734129 0 0 128 63
-0.1088867 0.02767944 0.710783 0 0 128 63
-0.1104126 0.03051758 0.7107983 0 0 128 63
-0.1119995 0.0350647 0.7109852 0 0 128 63
-0.1138306 0.04022217 0.7110195 0 0 128 63
-0.1154785 0.04473877 0.7114735 0 0 128 63
-0.1173706 0.05001831 0.7137814 0 0 128 63
-0.1160278 0.04806519 0.711504 0 0 128 63
-0.1185303 0.05422974 0.7151852 0 0 128 63
-0.1199341 0.05880737 0.7164593 0 0 128 63
-0.1209106 0.06326294 0.7174091 0 0 128 63
-0.1220703 0.0642395 0.716444 0 0 128 63
-0.1238403 0.06954956 0.7174053 0 0 128 63
-0.1231079 0.0680542 0.7164021 0 0 128 63
-0.1253052 0.07162476 0.7174358 0 0 128 63
-0.125 0.07330322 0.7163754 0 0 128 63
-0.1266479 0.07785034 0.7161922 0 0 128 63
-0.1286011 0.08242798 0.7161846 0 0 128 63
-0.1314697 0.08703613 0.7173862 0 0 128 63
-0.1287231 0.08789062 0.7162189 0 0 128 63
-0.133728 0.09136963 0.7174015 0 0 128 63
-0.1315308 0.09204102 0.7162647 0 0 128 63
-0.1343994 0.09283447 0.7113819 0 0 128 63
-0.1325073 0.09667969 0.7150288 0 0 128 63
-0.1351318 0.09594727 0.7108479 0 0 128 63
-0.1340942 0.1012878 0.7142811 0 0 128 63
-0.1366577 0.1007385 0.7108669 0 0 128 63
-0.1362915 0.1087341 0.7221127 0 0 128 63
-0.1370239 0.1069031 0.7184811 0 0 128 63
-0.137085 0.1051636 0.7162342 0 0 128 63
-0.1383057 0.1040039 0.7106495 0 0 128 63
-0.1384277 0.1110229 0.722868 0 0 128 63
-0.1394653 0.115387 0.7230282 0 0 128 63
-0.1414185 0.120636 0.7284756 0 0 128 63
-0.1430664 0.1251221 0.728754 0 0 128 63
-0.1445923 0.1318665 0.7310123 0 0 128 63
-0.144043 0.1291809 0.7300472 0 0 128 63
-0.1463013 0.1346436 0.7322826 0 0 128 63
-0.1473389 0.1394043 0.7336407 0 0 128 63
-0.1481934 0.1425171 0.733942 0 0 128 63
-0.1047363 0.02890015 0.7108784 0 0 128 63
-0.1053467 0.03234863 0.7109051 0 0 128 63
-0.1070557 0.03677368 0.7109051 0 0 128 63
-0.1077881 0.04244995 0.7137165 0 0 128 63
-0.1097412 0.04144287 0.7111111 0 0 128 63
-0.1094971 0.04663086 0.7137012 0 0 128 63
-0.1117554 0.04608154 0.7111301 0 0 128 63
-0.1121826 0.05133057 0.7138729 0 0 128 63
-0.1135254 0.04907227 0.7113476 0 0 128 63
-0.1129761 0.05764771 0.7171345 0 0 128 63
-0.1140747 0.05535889 0.7149296 0 0 128 63
-0.1160889 0.06237793 0.7171803 0 0 128 63
-0.1151123 0.06002808 0.7161808 0 0 128 63
-0.1171265 0.06549072 0.717165 0 0 128 63
-0.1191406 0.06713867 0.7162189 0 0 128 63
-0.1183472 0.06988525 0.7171078 0 0 128 63
-0.1199341 0.07067871 0.716177 0 0 128 63
-0.1203613 0.07470703 0.7161007 0 0 128 63
-0.1208496 0.07977295 0.7170086 0 0 128 63
-0.1224976 0.07937622 0.7158718 0 0 128 63
-0.1231689 0.08627319 0.7169743 0 0 128 63
-0.1238403 0.08352661 0.7159023 0 0 128 63
-0.1248779 0.08959961 0.7169781 0 0 128 63
-0.1262817 0.08850098 0.7160778 0 0 128 63
-0.1271973 0.09408569 0.7169895 0 0 128 63
-0.1272583 0.09204102 0.7160397 0 0 128 63
-0.12854 0.09841919 0.7174168 0 0 128 63
-0.1307373 0.09963989 0.7160358 0 0 128 63
-0.1296997 0.103302 0.7171803 0 0 128 63
-0.1321411 0.1034241 0.7154522 0 0 128 63
-0.1320801 0.109375 0.72188 0 0 128 63
-0.1322021 0.1070557 0.7186108 0 0 128 63
-0.1337891 0.1126709 0.7225285 0 0 128 63
-0.1350098 0.1170654 0.722681 0 0 128 63
-0.137085 0.1224365 0.7278385 0 0 128 63
-0.1383667 0.12677 0.7283115 0 0 128 63
-0.1402588 0.1332397 0.7307568 0 0 128 63
-0.1391602 0.1304626 0.7297573 0 0 128 63
-0.1416626 0.1366882 0.7321949 0 0 128 63
-0.1430054 0.1412659 0.7352085 0 0 128 63
-0.1437988 0.1461182 0.7384739 0 0 128 63
-0.1455688 0.1445923 0.7353649 0 0 128 63
-0.1443481 0.149353 0.740591 0 0 128 63
-0.09991455 0.0302124 0.7106953 0 0 128 63
-0.1004028 0.03445435 0.7139225 0 0 128 63
-0.1010742 0.0324707 0.7110996 0 0 128 63
-0.1020508 0.03863525 0.7140789 0 0 128 63
-0.1044922 0.03842163 0.710638 0 0 128 63
-0.1022949 0.04382324 0.7169056 0 0 128 63
-0.1046753 0.04293823 0.7158222 0 0 128 63
-0.1031494 0.04650879 0.7168865 0 0 128 63
-0.1057739 0.04779053 0.7158566 0 0 128 63
-0.1063843 0.05554199 0.7168369 0 0 128 63
-0.1077271 0.05267334 0.7158375 0 0 128 63
-0.1077881 0.05838013 0.7168407 0 0 128 63
-0.1098633 0.05706787 0.7159824 0 0 128 63
-0.1104736 0.06378174 0.7168522 0 0 128 63
-0.1109619 0.06121826 0.7159328 0 0 128 63
-0.112854 0.06738281 0.7174206 0 0 128 63
-0.1137695 0.0645752 0.7159977 0 0 128 63
-0.1143188 0.07168579 0.7168674 0 0 128 63
-0.1153564 0.07281494 0.7158833 0 0 128 63
-0.1140137 0.0770874 0.7167187 0 0 128 63
-0.1162109 0.07623291 0.7158489 0 0 128 63
-0.1171875 0.08145142 0.7167797 0 0 128 63
-0.118103 0.07989502 0.7158604 0 0 128 63
-0.1188354 0.08554077 0.7173748 0 0 128 63
-0.1212769 0.08538818 0.7158871 0 0 128 63
-0.1212769 0.09048462 0.7169209 0 0 128 63
-0.1204834 0.09158325 0.7156963 0 0 128 63
-0.1227417 0.09521484 0.7167416 0 0 128 63
-0.1241455 0.09973145 0.7174091 0 0 128 63
-0.1259155 0.1044312 0.7181301 0 0 128 63
-0.1273804 0.1105347 0.7217007 0 0 128 63
-0.1270142 0.1075439 0.7190609 0 0 128 63
-0.1287231 0.1144409 0.7220821 0 0 128 63
-0.1304932 0.1190491 0.7223759 0 0 128 63
-0.1326294 0.1244507 0.7275639 0 0 128 63
-0.1300049 0.123291 0.7244473 0 0 128 63
-0.1334839 0.1287231 0.7285938 0 0 128 63
-0.135498 0.1346436 0.7307568 0 0 128 63
-0.1348267 0.1321716 0.7294941 0 0 128 63
-0.1369629 0.1382751 0.7324696 0 0 128 63
-0.137207 0.1453247 0.7373219 0 0 128 63
-0.1386108 0.1427307 0.735445 0 0 128 63
-0.1397705 0.147644 0.7387295 0 0 128 63
-0.1425171 0.1519165 0.7424374 0 0 128 63
-0.140625 0.1511841 0.7403584 0 0 128 63
-0.09527588 0.03161621 0.7140789 0 0 128 63
-0.09625244 0.03567505 0.7153416 0 0 128 63
-0.0970459 0.04177856 0.7166805 0 0 128 63
-0.09802246 0.04000854 0.7151661 0 0 128 63
-0.09906006 0.04534912 0.7167034 0 0 128 63
-0.09863281 0.04437256 0.7156963 0 0 128 63
-0.09997559 0.04916382 0.7166615 0 0 128 63
-0.102417 0.04998779 0.7157574 0 0 128 63
-0.1005249 0.05328369 0.7165852 0 0 128 63
-0.1030273 0.0546875 0.7156811 0 0 128 63
-0.105957 0.05966187 0.7167149 0 0 128 63
-0.1040649 0.05880737 0.7156315 0 0 128 63
-0.1057129 0.06414795 0.7166042 0 0 128 63
-0.1054077 0.06268311 0.7156124 0 0 128 63
-0.107605 0.06878662 0.716589 0 0 128 63
-0.1074829 0.07122803 0.7155132 0 0 128 63
-0.1092529 0.0736084 0.7168827 0 0 128 63
-0.1109619 0.07827759 0.717783 0 0 128 63
-0.1125488 0.08279419 0.7178364 0 0 128 63
-0.1141968 0.08737183 0.7174206 0 0 128 63
-0.1158447 0.09259033 0.716444 0 0 128 63
-0.1175537 0.09707642 0.716589 0 0 128 63
-0.1193848 0.1017456 0.7179623 0 0 128 63
-0.1212769 0.1063843 0.7192249 0 0 128 63
-0.1235352 0.11203 0.7213764 0 0 128 63
-0.1217041 0.1105347 0.7193089 0 0 128 63
-0.1244507 0.1161194 0.7216969 0 0 128 63
-0.1220703 0.1150208 0.7192249 0 0 128 63
-0.1253662 0.1207886 0.7225971 0 0 128 63
-0.1275024 0.1259155 0.7270908 0 0 128 63
-0.1260986 0.1246643 0.7242107 0 0 128 63
-0.1287842 0.1300964 0.7282238 0 0 128 63
-0.1307983 0.1355286 0.7307758 0 0 128 63
-0.1296387 0.1341858 0.7291737 0 0 128 63
-0.1318359 0.1399841 0.7327328 0 0 128 63
-0.133728 0.1459351 0.7371235 0 0 128 63
-0.133667 0.1436768 0.7351589 0 0 128 63
-0.1351318 0.149353 0.7387791 0 0 128 63
-0.1362305 0.1551208 0.7420368 0 0 128 63
-0.1367188 0.1526489 0.740118 0 0 128 63
-0.1363525 0.1575317 0.7439861 0 0 128 63
-0.0894165 0.0322876 0.7165127 0 0 128 63
-0.09039307 0.0335083 0.7155323 0 0 128 63
-0.09173584 0.03726196 0.7155132 0 0 128 63
-0.09356689 0.04397583 0.7164478 0 0 128 63
-0.09307861 0.0411377 0.7154903 0 0 128 63
-0.09448242 0.04660034 0.7175426 0 0 128 63
-0.09613037 0.05117798 0.717741 0 0 128 63
-0.09924316 0.05224609 0.7155399 0 0 128 63
-0.09747314 0.05560303 0.7163715 0 0 128 63
-0.09954834 0.05712891 0.7154331 0 0 128 63
-0.09899902 0.06213379 0.7162914 0 0 128 63
-0.1004028 0.06027222 0.7154102 0 0 128 63
-0.1008301 0.06561279 0.7165546 0 0 128 63
-0.1016235 0.06304932 0.7154026 0 0 128 63
-0.1033325 0.06948853 0.7163448 0 0 128 63
-0.1030884 0.0713501 0.7152805 0 0 128 63
-0.1046753 0.07543945 0.7162685 0 0 128 63
-0.1040039 0.07400513 0.7152653 0 0 128 63
-0.1063843 0.07992554 0.7175846 0 0 128 63
-0.1080322 0.08447266 0.7171116 0 0 128 63
-0.1096191 0.08898926 0.7168713 0 0 128 63
-0.1113892 0.09375 0.7161808 0 0 128 63
-0.112793 0.09841919 0.7175922 0 0 128 63
-0.112915 0.1052551 0.7209835 0 0 128 63
-0.114563 0.1034241 0.7190456 0 0 128 63
-0.1152344 0.1083069 0.7210293 0 0 128 63
-0.1177979 0.1079712 0.7191753 0 0 128 63
-0.1167603 0.1136169 0.7209873 0 0 128 63
-0.1187744 0.1123047 0.7191181 0 0 128 63
-0.1194458 0.118042 0.7223568 0 0 128 63
-0.1202393 0.1166382 0.7190838 0 0 128 63
-0.1210938 0.1231079 0.7259884 0 0 128 63
-0.1207275 0.1210022 0.72402 0 0 128 63
-0.1226807 0.1269531 0.7264805 0 0 128 63
-0.1244507 0.1316528 0.72719 0 0 128 63
-0.1263428 0.1376953 0.7314243 0 0 128 63
-0.1257935 0.1350708 0.7282848 0 0 128 63
-0.1271973 0.1414795 0.7335453 0 0 128 63
-0.1290894 0.1473083 0.7374058 0 0 128 63
-0.1286011 0.144928 0.734869 0 0 128 63
-0.1290894 0.1528625 0.7417202 0 0 128 63
-0.1309204 0.1509399 0.7398586 0 0 128 63
-0.1317749 0.1557922 0.7420063 0 0 128 63
-0.133606 0.1531677 0.7399426 0 0 128 63
-0.1329346 0.1612549 0.7460613 0 0 128 63
-0.1325073 0.1591187 0.7447529 0 0 128 63
-0.08496094 0.03457642 0.7162304 0 0 128 63
-0.08599854 0.03933716 0.7161694 0 0 128 63
-0.08856201 0.03842163 0.7153149 0 0 128 63
-0.08807373 0.04431152 0.7163219 0 0 128 63
-0.08856201 0.04171753 0.7152348 0 0 128 63
-0.09008789 0.04815674 0.7175846 0 0 128 63
-0.09173584 0.05273438 0.7179012 0 0 128 63
-0.09320068 0.05792236 0.7163601 0 0 128 63
-0.09594727 0.05923462 0.7151966 0 0 128 63
-0.09515381 0.06253052 0.716917 0 0 128 63
-0.09674072 0.06726074 0.7173901 0 0 128 63
-0.09796143 0.07208252 0.7160091 0 0 128 63
-0.1004639 0.07327271 0.7150974 0 0 128 63
-0.1000977 0.07672119 0.7160091 0 0 128 63
-0.09973145 0.07836914 0.7149372 0 0 128 63
-0.1017456 0.08148193 0.7162228 0 0 128 63
-0.1034546 0.08602905 0.7170353 0 0 128 63
-0.1040649 0.09283447 0.7208233 0 0 128 63
-0.1055298 0.09036255 0.7183094 0 0 128 63
-0.1082764 0.09646606 0.7209568 0 0 128 63
-0.1067505 0.09512329 0.7176342 0 0 128 63
-0.1085205 0.09985352 0.7184429 0 0 128 63
-0.1089478 0.1055298 0.7207699 0 0 128 63
-0.1102295 0.104187 0.7188702 0 0 128 63
-0.1114502 0.109436 0.720808 0 0 128 63
-0.1132812 0.1147461 0.7216091 0 0 128 63
-0.1148682 0.1197815 0.7232037 0 0 128 63
-0.1159058 0.1244202 0.725687 0 0 128 63
-0.1171265 0.1226501 0.7237949 0 0 128 63
-0.1181641 0.1283264 0.7259083 0 0 128 63
-0.1164551 0.1310425 0.7235546 0 0 128 63
-0.1205444 0.132843 0.7258511 0 0 128 63
-0.1176147 0.133606 0.7235622 0 0 128 63
-0.1199951 0.1401367 0.7325344 0 0 128 63
-0.1210938 0.1369324 0.7266674 0 0 128 63
-0.1227417 0.1427917 0.733408 0 0 128 63
-0.1238403 0.1481018 0.7370014 0 0 128 63
-0.1258545 0.1459045 0.7347088 0 0 128 63
-0.1251831 0.1542969 0.7416515 0 0 128 63
-0.1261597 0.1519775 0.7383823 0 0 128 63
-0.1260376 0.1600342 0.7453976 0 0 128 63
-0.1273804 0.1574707 0.743166 0 0 128 63
-0.1268921 0.1653748 0.7503262 0 0 128 63
-0.1286621 0.1625366 0.7470303 0 0 128 63
-0.1282959 0.1673584 0.7523518 0 0 128 63
-0.1299438 0.1655579 0.7494717 0 0 128 63
-0.07806396 0.03329468 0.7172337 0 0 128 63
-0.07995605 0.03634644 0.7175503 0 0 128 63
-0.08154297 0.04089355 0.7175694 0 0 128 63
-0.08184814 0.0456543 0.7208004 0 0 128 63
-0.08380127 0.04541016 0.7180767 0 0 128 63
-0.08422852 0.05056763 0.7208118 0 0 128 63
-0.08636475 0.04925537 0.7187519 0 0 128 63
-0.08557129 0.05471802 0.7207813 0 0 128 63
-0.08776855 0.05456543 0.7185192 0 0 128 63
-0.08740234 0.0602417 0.7207394 0 0 128 63
-0.08935547 0.05950928 0.7166309 0 0 128 63
-0.08905029 0.06488037 0.7207127 0 0 128 63
-0.09112549 0.06393433 0.7161694 0 0 128 63
-0.09020996 0.06817627 0.7206936 0 0 128 63
-0.09216309 0.06930542 0.7181034 0 0 128 63
-0.09350586 0.07373047 0.7175732 0 0 128 63
-0.09484863 0.07830811 0.7177563 0 0 128 63
-0.09674072 0.08340454 0.7180424 0 0 128 63
-0.09759521 0.08886719 0.7205791 0 0 128 63
-0.09912109 0.08755493 0.718565 0 0 128 63
-0.09936523 0.09326172 0.7205715 0 0 128 63
-0.1015015 0.09176636 0.7187138 0 0 128 63
-0.100708 0.09768677 0.7205334 0 0 128 63
-0.1030884 0.09661865 0.7185154 0 0 128 63
-0.1028442 0.102417 0.7205257 0 0 128 63
-0.1047974 0.100708 0.7186718 0 0 128 63
-0.1053467 0.1064758 0.7208958 0 0 128 63
-0.1068726 0.1111145 0.7209034 0 0 128 63
-0.107666 0.118042 0.7254162 0 0 128 63
-0.1091919 0.1159058 0.7218456 0 0 128 63
-0.1094971 0.1221008 0.7258549 0 0 128 63
-0.1105347 0.1196594 0.722723 0 0 128 63
-0.1112671 0.125824 0.7259159 0 0 128 63
-0.112793 0.1303711 0.7262516 0 0 128 63
-0.1151123 0.1315308 0.7234745 0 0 128 63
-0.1130981 0.1368103 0.7292614 0 0 128 63
-0.1150513 0.1358032 0.7283764 0 0 128 63
-0.1146851 0.1335449 0.7234058 0 0 128 63
-0.1157227 0.1402283 0.7298832 0 0 128 63
-0.1168213 0.1380005 0.7284184 0 0 128 63
-0.1185913 0.145874 0.7363415 0 0 128 63
-0.1177979 0.1444702 0.7327175 0 0 128 63
-0.1195679 0.1495972 0.7369289 0 0 128 63
-0.1206055 0.1549683 0.7422276 0 0 128 63
-0.1206665 0.1525879 0.7392864 0 0 128 63
-0.1212769 0.1591797 0.7458363 0 0 128 63
-0.1228638 0.1568909 0.7442989 0 0 128 63
-0.1233521 0.1657104 0.7501354 0 0 128 63
-0.1240234 0.1627808 0.7482243 0 0 128 63
-0.1252441 0.1686707 0.752161 0 0 128 63
-0.1239624 0.1724854 0.7570095 0 0 128 63
-0.1255493 0.1712952 0.754118 0 0 128 63
-0.0725708 0.03530884 0.7205677 0 0 128 63
-0.07501221 0.03445435 0.7187138 0 0 128 63
-0.07513428 0.03808594 0.7210712 0 0 128 63
-0.07678223 0.04275513 0.7209377 0 0 128 63
-0.07836914 0.04727173 0.7210827 0 0 128 63
-0.07995605 0.05187988 0.7217236 0 0 128 63
-0.08172607 0.05651855 0.7224178 0 0 128 63
-0.08361816 0.06118774 0.7212086 0 0 128 63
-0.0848999 0.06585693 0.7210712 0 0 128 63
-0.08679199 0.07092285 0.7206974 0 0 128 63
-0.08654785 0.07470703 0.7203503 0 0 128 63
-0.08898926 0.0753479 0.7184582 0 0 128 63
-0.08868408 0.08276367 0.7202625 0 0 128 63
-0.09039307 0.07980347 0.7184238 0 0 128 63
-0.09124756 0.08535767 0.7203388 0 0 128 63
-0.09197998 0.08331299 0.71842 0 0 128 63
-0.09332275 0.08929443 0.7206631 0 0 128 63
-0.09521484 0.09457397 0.7207584 0 0 128 63
-0.09680176 0.09915161 0.7209644 0 0 128 63
-0.09838867 0.1037598 0.7206402 0 0 128 63
-0.1000977 0.1083679 0.720911 0 0 128 63
-0.1008911 0.1159973 0.725111 0 0 128 63
-0.1019287 0.1128845 0.7219067 0 0 128 63
-0.1036377 0.118988 0.7253513 0 0 128 63
-0.1038208 0.1167297 0.7232456 0 0 128 63
-0.1052856 0.1225281 0.7260418 0 0 128 63
-0.1066284 0.1275024 0.7260303 0 0 128 63
-0.1084595 0.1322937 0.7272892 0 0 128 63
-0.1099243 0.1377563 0.7304745 0 0 128 63
-0.1110229 0.1352234 0.7281818 0 0 128 63
-0.1115112 0.1416016 0.7316456 0 0 128 63
-0.114563 0.1473083 0.7360973 0 0 128 63
-0.1132202 0.1459351 0.7332134 0 0 128 63
-0.1140137 0.1529236 0.7409344 0 0 128 63
-0.114502 0.1505432 0.7382641 0 0 128 63
-0.1173706 0.1570435 0.7450199 0 0 128 63
-0.1155396 0.1556091 0.7421513 0 0 128 63
-0.1170044 0.1530151 0.7390804 0 0 128 63
-0.1171875 0.1604614 0.7464809 0 0 128 63
-0.1188354 0.1661987 0.7513866 0 0 128 63
-0.1185303 0.1635742 0.7489262 0 0 128 63
-0.1203003 0.1718445 0.756834 0 0 128 63
-0.1207275 0.16922 0.7534161 0 0 128 63
-0.1204224 0.1769714 0.7609768 0 0 128 63
-0.1220093 0.1741333 0.7584705 0 0 128 63
-0.06774902 0.03652954 0.7252979 0 0 128 63
-0.06896973 0.03585815 0.7233753 0 0 128 63
-0.07073975 0.03970337 0.722208 0 0 128 63
-0.07208252 0.04437256 0.7211056 0 0 128 63
-0.07373047 0.0489502 0.7210522 0 0 128 63
-0.07537842 0.05349731 0.7212811 0 0 128 63
-0.07720947 0.0581665 0.7227726 0 0 128 63
-0.07684326 0.06500244 0.7250881 0 0 128 63
-0.07897949 0.06271362 0.7223606 0 0 128 63
-0.0803833 0.06741333 0.7220402 0 0 128 63
-0.08209229 0.0725708 0.7210827 0 0 128 63
-0.08355713 0.07723999 0.7203846 0 0 128 63
-0.08587646 0.07678223 0.718256 0 0 128 63
-0.08532715 0.08197021 0.7206554 0 0 128 63
-0.08703613 0.0798645 0.7182484 0 0 128 63
-0.08709717 0.08636475 0.7210979 0 0 128 63
-0.08880615 0.09100342 0.7212429 0 0 128 63
-0.09051514 0.09564209 0.7223949 0 0 128 63
-0.09222412 0.1002197 0.7223682 0 0 128 63
-0.09191895 0.1062012 0.7248821 0 0 128 63
-0.09417725 0.1051025 0.7216167 0 0 128 63
-0.09423828 0.11026 0.7255077 0 0 128 63
-0.09680176 0.1101074 0.7225323 0 0 128 63
-0.09667969 0.115509 0.7253666 0 0 128 63
-0.09851074 0.113678 0.7230434 0 0 128 63
-0.09863281 0.119812 0.7254009 0 0 128 63
-0.1005249 0.1243896 0.7262974 0 0 128 63
-0.1004639 0.130188 0.7287617 0 0 128 63
-0.1019897 0.1289978 0.7261944 0 0 128 63
-0.1033325 0.1349182 0.7297955 0 0 128 63
-0.1038818 0.1325684 0.7266178 0 0 128 63
-0.1053467 0.1382141 0.7306805 0 0 128 63
-0.1069336 0.1433716 0.7321148 0 0 128 63
-0.1083984 0.1496582 0.7383137 0 0 128 63
-0.1083374 0.1469116 0.7334347 0 0 128 63
-0.1094971 0.1535034 0.7406826 0 0 128 63
-0.1102295 0.1514587 0.7387714 0 0 128 63
-0.1108398 0.1590576 0.7446308 0 0 128 63
-0.1110229 0.1566772 0.742857 0 0 128 63
-0.1125488 0.1622009 0.746645 0 0 128 63
-0.1137695 0.1697998 0.7562122 0 0 128 63
-0.114563 0.1676331 0.7526264 0 0 128 63
-0.1137695 0.1652527 0.7486401 0 0 128 63
-0.1141968 0.1731262 0.7604923 0 0 128 63
-0.1166382 0.171936 0.7576427 0 0 128 63
-0.1155396 0.1777344 0.7634563 0 0 128 63
-0.1169434 0.1766968 0.7612972 0 0 128 63
-0.1187744 0.1746826 0.7586918 0 0 128 63
-0.1165161 0.1800537 0.7654591 0 0 128 63
-0.06420898 0.03753662 0.7257557 0 0 128 63
-0.06536865 0.04162598 0.7254505 0 0 128 63
-0.06762695 0.040802 0.7228489 0 0 128 63
-0.06616211 0.0461731 0.7257366 0 0 128 63
-0.06854248 0.0458374 0.7218609 0 0 128 63
-0.06573486 0.04974365 0.7288876 0 0 128 63
-0.06689453 0.04922485 0.7259541 0 0 128 63
-0.06945801 0.05062866 0.7213764 0 0 128 63
-0.06915283 0.05584717 0.7249088 0 0 128 63
-0.07128906 0.05505371 0.7220364 0 0 128 63
-0.0715332 0.0602417 0.7249165 0 0 128 63
-0.07397461 0.05932617 0.7230778 0 0 128 63
-0.07366943 0.06466675 0.7251835 0 0 128 63
-0.07574463 0.06341553 0.7230625 0 0 128 63
-0.074646 0.0687561 0.7248783 0 0 128 63
-0.0770874 0.06921387 0.7227726 0 0 128 63
-0.07519531 0.07299805 0.7248135 0 0 128 63
-0.07794189 0.07424927 0.7216473 0 0 128 63
-0.07928467 0.07879639 0.7214603 0 0 128 63
-0.08026123 0.08468628 0.7249546 0 0 128 63
-0.08166504 0.08273315 0.7221127 0 0 128 63
-0.0803833 0.08761597 0.7247334 0 0 128 63
-0.08294678 0.08810425 0.7223034 0 0 128 63
-0.08441162 0.09265137 0.7226925 0 0 128 63
-0.0847168 0.09835815 0.724947 0 0 128 63
-0.08679199 0.09683228 0.7228413 0 0 128 63
-0.08703613 0.1027222 0.7253132 0 0 128 63
-0.08905029 0.1008911 0.7228565 0 0 128 63
-0.08892822 0.1069641 0.725481 0 0 128 63
-0.09063721 0.1115723 0.725687 0 0 128 63
-0.0925293 0.1164856 0.7260685 0 0 128 63
-0.09240723 0.1228333 0.7285175 0 0 128 63
-0.09417725 0.1209106 0.7272015 0 0 128 63
-0.09436035 0.1272888 0.7285061 0 0 128 63
-0.09558105 0.1255493 0.7276096 0 0 128 63
-0.09716797 0.1320496 0.7302151 0 0 128 63
-0.09686279 0.1290283 0.7275944 0 0 128 63
-0.09881592 0.1356201 0.7310429 0 0 128 63
-0.100647 0.1398926 0.7323055 0 0 128 63
-0.1010132 0.1461487 0.7359142 0 0 128 63
-0.1025391 0.1443176 0.7331676 0 0 128 63
-0.1018066 0.1526794 0.7403049 0 0 128 63
-0.1034546 0.150177 0.736948 0 0 128 63
-0.1046143 0.147522 0.7335644 0 0 128 63
-0.1048584 0.1551819 0.7416096 0 0 128 63
-0.1054688 0.1525574 0.7384968 0 0 128 63
-0.1060791 0.1595459 0.7445965 0 0 128 63
-0.1081543 0.1570435 0.743536 0 0 128 63
-0.1078491 0.164093 0.7474651 0 0 128 63
-0.1083984 0.1701355 0.7557583 0 0 128 63
-0.109375 0.1679382 0.7516842 0 0 128 63
-0.1087036 0.176178 0.7631435 0 0 128 63
-0.1109619 0.1740723 0.7604656 0 0 128 63
-0.1099243 0.1716614 0.7582989 0 0 128 63
-0.1117554 0.178894 0.7649364 0 0 128 63
-0.1124268 0.1759949 0.7613316 0 0 128 63
-0.1119385 0.1837769 0.7711391 0 0 128 63
-0.1141357 0.1819763 0.7664547 0 0 128 63
-0.1117554 0.1869202 0.7740574 0 0 128 63
-0.05822754 0.03897095 0.728754 0 0 128 63
-0.06103516 0.03869629 0.7269001 0 0 128 63
-0.05993652 0.04388428 0.7290096 0 0 128 63
-0.06213379 0.04251099 0.727644 0 0 128 63
-0.06091309 0.04849243 0.7286625 0 0 128 63
-0.06341553 0.04751587 0.7275906 0 0 128 63
-0.06359863 0.05230713 0.7289104 0 0 128 63
-0.06585693 0.05307007 0.727808 0 0 128 63
-0.0668335 0.05368042 0.7228374 0 0 128 63
-0.06481934 0.05755615 0.728651 0 0 128 63
-0.06732178 0.05657959 0.7269955 0 0 128 63
-0.06774902 0.05633545 0.7228222 0 0 128 63
-0.06658936 0.06216431 0.7293835 0 0 128 63
-0.06903076 0.06121826 0.7267742 0 0 128 63
-0.06829834 0.0668335 0.7292728 0 0 128 63
-0.07067871 0.06585693 0.7267475 0 0 128 63
-0.06958008 0.07147217 0.7301922 0 0 128 63
-0.07202148 0.07049561 0.7261524 0 0 128 63
-0.07110596 0.07595825 0.7300358 0 0 128 63
-0.07354736 0.07543945 0.7261715 0 0 128 63
-0.07196045 0.07971191 0.7284908 0 0 128 63
-0.07440186 0.08016968 0.7259846 0 0 128 63
-0.07666016 0.08129883 0.7226849 0 0 128 63
-0.07611084 0.08544922 0.7256832 0 0 128 63
-0.07775879 0.09008789 0.7256947 0 0 128 63
-0.07928467 0.09481812 0.726038 0 0 128 63
-0.08135986 0.09448242 0.7226124 0 0 128 63
-0.08111572 0.09942627 0.7263126 0 0 128 63
-0.08282471 0.1041565 0.7269688 0 0 128 63
-0.0836792 0.1106873 0.7283573 0 0 128 63
-0.08465576 0.1083984 0.7272587 0 0 128 63
-0.0848999 0.1139832 0.72859 0 0 128 63
-0.08752441 0.112915 0.7274952 0 0 128 63
-0.08691406 0.1190796 0.7300777 0 0 128 63
-0.08917236 0.1172485 0.7274799 0 0 128 63
-0.08886719 0.1231689 0.7313251 0 0 128 63
-0.09063721 0.1200562 0.7274876 0 0 128 63
-0.08959961 0.1289062 0.7364025 0 0 128 63
-0.09088135 0.1271973 0.7320461 0 0 128 63
-0.0925293 0.1253357 0.7274609 0 0 128 63
-0.09136963 0.1328125 0.7369404 0 0 128 63
-0.09381104 0.1321716 0.7313671 0 0 128 63
-0.09393311 0.1292725 0.727438 0 0 128 63
-0.09289551 0.1374512 0.7364559 0 0 128 63
-0.09503174 0.1367188 0.7333241 0 0 128 63
-0.09442139 0.1446838 0.7401142 0 0 128 63
-0.09503174 0.1418762 0.7368412 0 0 128 63
-0.09698486 0.1403503 0.7333355 0 0 128 63
-0.09539795 0.1473694 0.740099 0 0 128 63
-0.09777832 0.1463318 0.7375164 0 0 128 63
-0.09802246 0.1517944 0.7402554 0 0 128 63
-0.09991455 0.1502075 0.7378597 0 0 128 63
-0.09838867 0.1571045 0.7452793 0 0 128 63
-0.1010742 0.1563416 0.7421856 0 0 128 63
-0.1015625 0.1614075 0.7455921 0 0 128 63
-0.1027222 0.166748 0.750536 0 0 128 63
-0.1046143 0.1647339 0.7466755 0 0 128 63
-0.1046753 0.1718445 0.7552738 0 0 128 63
-0.104126 0.1695557 0.753046 0 0 128 63
-0.1072998 0.1766968 0.7630558 0 0 128 63
-0.1055298 0.1758423 0.7606449 0 0 128 63
-0.1052856 0.1733093 0.7580166 0 0 128 63
-0.1072998 0.1804504 0.765852 0 0 128 63
-0.1088867 0.1854248 0.7709332 0 0 128 63
-0.1099243 0.183075 0.7680416 0 0 128 63
-0.1104126 0.1874084 0.7739735 0 0 128 63
-0.05444336 0.0402832 0.7311153 0 0 128 63
-0.05615234 0.04473877 0.7306461 0 0 128 63
-0.05749512 0.04953003 0.7306995 0 0 128 63
-0.05938721 0.05432129 0.7308254 0 0 128 63
-0.06103516 0.05899048 0.7309208 0 0 128 63
-0.06274414 0.06359863 0.7314053 0 0 128 63
-0.06451416 0.06832886 0.732378 0 0 128 63
-0.06506348 0.07388306 0.7357121 0 0 128 63
-0.06713867 0.07263184 0.7326641 0 0 128 63
-0.06622314 0.0774231 0.7352581 0 0 128 63
-0.06848145 0.07775879 0.7320232 0 0 128 63
-0.06872559 0.08203125 0.7298107 0 0 128 63
-0.07122803 0.08309937 0.7273655 0 0 128 63
-0.06933594 0.08703613 0.728178 0 0 128 63
-0.07189941 0.08660889 0.7273159 0 0 128 63
-0.0713501 0.09292603 0.7281399 0 0 128 63
-0.07287598 0.09078979 0.7272701 0 0 128 63
-0.07373047 0.09683228 0.7290554 0 0 128 63
-0.07556152 0.09512329 0.7273006 0 0 128 63
-0.07440186 0.1018982 0.7350941 0 0 128 63
-0.07568359 0.1008301 0.7312756 0 0 128 63
-0.07781982 0.1016541 0.7272625 0 0 128 63
-0.07653809 0.1065369 0.731081 0 0 128 63
-0.07867432 0.1055603 0.7272167 0 0 128 63
-0.07879639 0.111145 0.7301922 0 0 128 63
-0.08050537 0.1092224 0.7272205 0 0 128 63
-0.08093262 0.1149292 0.7306957 0 0 128 63
-0.08129883 0.1213684 0.7349873 0 0 128 63
-0.08288574 0.1194153 0.7324924 0 0 128 63
-0.08380127 0.1252136 0.7353077 0 0 128 63
-0.08538818 0.1235962 0.7324734 0 0 128 63
-0.08581543 0.1295166 0.736208 0 0 128 63
-0.08563232 0.137207 0.7398357 0 0 128 63
-0.08746338 0.1343994 0.7377949 0 0 128 63
-0.08728027 0.1396179 0.7400303 0 0 128 63
-0.08984375 0.1383972 0.7380199 0 0 128 63
-0.09039307 0.1438293 0.7410831 0 0 128 63
-0.09143066 0.1408997 0.7380428 0 0 128 63
-0.09063721 0.1504822 0.7437878 0 0 128 63
-0.09210205 0.1482544 0.741827 0 0 128 63
-0.09350586 0.153717 0.7442989 0 0 128 63
-0.09490967 0.1515198 0.7423115 0 0 128 63
-0.09521484 0.1580811 0.7466412 0 0 128 63
-0.09637451 0.1638184 0.7496319 0 0 128 63
-0.09716797 0.1618042 0.7473583 0 0 128 63
-0.09680176 0.1689758 0.7546787 0 0 128 63
-0.09851074 0.1677246 0.7520008 0 0 128 63
-0.09857178 0.1745605 0.7596455 0 0 128 63
-0.09942627 0.1723633 0.7557392 0 0 128 63
-0.100647 0.1707764 0.7528362 0 0 128 63
-0.100708 0.178894 0.764658 0 0 128 63
-0.1008301 0.1762085 0.7604694 0 0 128 63
-0.1015625 0.1746216 0.7577953 0 0 128 63
-0.102478 0.1840515 0.7696438 0 0 128 63
-0.1027832 0.1817932 0.7674503 0 0 128 63
-0.1036987 0.1866455 0.7716389 0 0 128 63
-0.1056519 0.1843872 0.7667904 0 0 128 63
-0.04785156 0.04190063 0.7360325 0 0 128 63
-0.050354 0.0413208 0.7332897 0 0 128 63
-0.05065918 0.04611206 0.7323589 0 0 128 63
-0.05218506 0.0508728 0.7317867 0 0 128 63
-0.05419922 0.05618286 0.7323856 0 0 128 63
-0.05426025 0.06228638 0.7349987 0 0 128 63
-0.05615234 0.06060791 0.7331333 0 0 128 63
-0.0567627 0.06668091 0.7353077 0 0 128 63
-0.05828857 0.06469727 0.7331448 0 0 128 63
-0.05847168 0.07183838 0.7406559 0 0 128 63
-0.05932617 0.07037354 0.7362652 0 0 128 63
-0.06030273 0.0690918 0.7331448 0 0 128 63
-0.06011963 0.07507324 0.7404957 0 0 128 63
-0.06231689 0.07409668 0.7372799 0 0 128 63
-0.06097412 0.07873535 0.739954 0 0 128 63
-0.06335449 0.07952881 0.7369595 0 0 128 63
-0.06292725 0.0836792 0.7357655 0 0 128 63
-0.06500244 0.08465576 0.7318134 0 0 128 63
-0.0657959 0.08886719 0.7311993 0 0 128 63
-0.06640625 0.09649658 0.734808 0 0 128 63
-0.06756592 0.09335327 0.7312031 0 0 128 63
-0.06756592 0.09902954 0.7348118 0 0 128 63
-0.07000732 0.09802246 0.7325726 0 0 128 63
-0.07086182 0.1030579 0.7350826 0 0 128 63
-0.07354736 0.1043091 0.7329884 0 0 128 63
-0.07202148 0.1080933 0.7351513 0 0 128 63
-0.07452393 0.1069641 0.7329731 0 0 128 63
-0.07293701 0.1114502 0.7359943 0 0 128 63
-0.07513428 0.1123962 0.732645 0 0 128 63
-0.07568359 0.117218 0.7368717 0 0 128 63
-0.07733154 0.1149597 0.7329273 0 0 128 63
-0.07794189 0.1216736 0.7365894 0 0 128 63
-0.07891846 0.1288757 0.7396908 0 0 128 63
-0.07940674 0.1260986 0.737112 0 0 128 63
-0.08026123 0.1317444 0.7399693 0 0 128 63
-0.08251953 0.1300659 0.7378368 0 0 128 63
-0.08233643 0.1361389 0.7402706 0 0 128 63
-0.08459473 0.1342163 0.7378521 0 0 128 63
-0.08349609 0.1430969 0.7435932 0 0 128 63
-0.08422852 0.1408691 0.74193 0 0 128 63
-0.08508301 0.1458435 0.7443333 0 0 128 63
-0.08648682 0.1433716 0.7427387 0 0 128 63
-0.08703613 0.150177 0.7453175 0 0 128 63
-0.08642578 0.1550903 0.7484646 0 0 128 63
-0.08898926 0.1552734 0.7466793 0 0 128 63
-0.08972168 0.1600952 0.7487354 0 0 128 63
-0.09234619 0.1589966 0.7476788 0 0 128 63
-0.09197998 0.1642456 0.7510853 0 0 128 63
-0.09356689 0.1699219 0.754652 0 0 128 63
-0.0925293 0.167511 0.7524929 0 0 128 63
-0.09417725 0.1768799 0.7633686 0 0 128 63
-0.09661865 0.175354 0.7605267 0 0 128 63
-0.09472656 0.1729126 0.7564831 0 0 128 63
-0.09643555 0.1795654 0.7661228 0 0 128 63
-0.09863281 0.184845 0.7699184 0 0 128 63
-0.09735107 0.1828003 0.7673931 0 0 128 63
-0.09844971 0.1895752 0.775301 0 0 128 63
-0.0994873 0.1872559 0.77141 0 0 128 63
-0.04278564 0.04312134 0.7408733 0 0 128 63
-0.04541016 0.04354858 0.7371311 0 0 128 63
-0.04315186 0.04736328 0.7397823 0 0 128 63
-0.04614258 0.04779053 0.7361469 0 0 128 63
-0.04693604 0.05206299 0.7362919 0 0 128 63
-0.04882812 0.0531311 0.7329311 0 0 128 63
-0.04748535 0.05950928 0.7397137 0 0 128 63
-0.04815674 0.05767822 0.7377949 0 0 128 63
-0.05004883 0.05792236 0.7328777 0 0 128 63
-0.0489502 0.06292725 0.7397137 0 0 128 63
-0.05126953 0.06286621 0.7364979 0 0 128 63
-0.05230713 0.06137085 0.7329159 0 0 128 63
-0.05078125 0.06835938 0.7436848 0 0 128 63
-0.05169678 0.06713867 0.7407589 0 0 128 63
-0.05316162 0.06625366 0.7355099 0 0 128 63
-0.0534668 0.07263184 0.7446117 0 0 128 63
-0.05511475 0.07077026 0.7411785 0 0 128 63
-0.05523682 0.06884766 0.7378941 0 0 128 63
-0.05511475 0.07659912 0.7442112 0 0 128 63
-0.05755615 0.07611084 0.7408428 0 0 128 63
-0.0559082 0.08132935 0.743639 0 0 128 63
-0.05853271 0.08099365 0.7407856 0 0 128 63
-0.05682373 0.08526611 0.7435932 0 0 128 63
-0.059021 0.08569336 0.7406979 0 0 128 63
-0.06097412 0.08721924 0.7362461 0 0 128 63
-0.05883789 0.09075928 0.7397633 0 0 128 63
-0.06140137 0.09072876 0.7353573 0 0 128 63
-0.05993652 0.09457397 0.7395191 0 0 128 63
-0.06286621 0.09555054 0.7352085 0 0 128 63
-0.0637207 0.09350586 0.7327366 0 0 128 63
-0.06231689 0.1013489 0.7394848 0 0 128 63
-0.06451416 0.09997559 0.7362309 0 0 128 63
-0.06439209 0.1054688 0.7394924 0 0 128 63
-0.06689453 0.1042175 0.7369022 0 0 128 63
-0.0657959 0.1097717 0.7394619 0 0 128 63
-0.0682373 0.109375 0.7376003 0 0 128 63
-0.06713867 0.1148682 0.7394085 0 0 128 63
-0.06958008 0.113739 0.7375622 0 0 128 63
-0.07000732 0.1194763 0.739645 0 0 128 63
-0.07208252 0.1176758 0.7376003 0 0 128 63
-0.07128906 0.1259766 0.7433681 0 0 128 63
-0.07196045 0.1236877 0.7401981 0 0 128 63
-0.07434082 0.1226807 0.7375965 0 0 128 63
-0.07220459 0.1287231 0.7433529 0 0 128 63
-0.07434082 0.128479 0.7403927 0 0 128 63
-0.07580566 0.126709 0.7375736 0 0 128 63
-0.074646 0.1343689 0.7433414 0 0 128 63
-0.07684326 0.1327515 0.7412434 0 0 128 63
-0.0769043 0.1380005 0.7436237 0 0 128 63
-0.07940674 0.1370239 0.7421246 0 0 128 63
-0.07910156 0.1425476 0.7448826 0 0 128 63
-0.08123779 0.141449 0.7425098 0 0 128 63
-0.07946777 0.1483459 0.7482662 0 0 128 63
-0.08087158 0.1471863 0.7467823 0 0 128 63
-0.081604 0.1526489 0.7490749 0 0 128 63
-0.08300781 0.1511536 0.7473774 0 0 128 63
-0.08398438 0.1568604 0.7491245 0 0 128 63
-0.08587646 0.1618652 0.7505054 0 0 128 63
-0.08618164 0.1672974 0.7544193 0 0 128 63
-0.08831787 0.1654663 0.7518177 0 0 128 63
-0.08856201 0.1711731 0.7557011 0 0 128 63
-0.09082031 0.1782837 0.7641659 0 0 128 63
-0.0892334 0.1758728 0.7591305 0 0 128 63
-0.09088135 0.1741333 0.7572575 0 0 128 63
-0.09204102 0.1813965 0.7662601 0 0 128 63
-0.09405518 0.1864014 0.7711506 0 0 128 63
-0.09307861 0.1842651 0.7671375 0 0 128 63
-0.09466553 0.1881714 0.7711353 0 0 128 63
-0.03564453 0.04241943 0.7485332 0 0 128 63
-0.03753662 0.04266357 0.7468166 0 0 128 63
-0.03900146 0.04528809 0.7454052 0 0 128 63
-0.04101562 0.04510498 0.7427349 0 0 128 63
-0.04083252 0.04968262 0.7399426 0 0 128 63
-0.04376221 0.04940796 0.7377644 0 0 128 63
-0.04223633 0.05529785 0.739687 0 0 128 63
-0.04406738 0.05325317 0.7376881 0 0 128 63
-0.04437256 0.05914307 0.7410145 0 0 128 63
-0.04663086 0.0574646 0.7377186 0 0 128 63
-0.04553223 0.06448364 0.7446499 0 0 128 63
-0.04699707 0.06304932 0.7410145 0 0 128 63
-0.04418945 0.07208252 0.7783108 0 0 128 63
-0.04724121 0.06890869 0.7448177 0 0 128 63
-0.04919434 0.06811523 0.7419376 0 0 128 63
-0.04547119 0.07562256 0.7782917 0 0 128 63
-0.04962158 0.07342529 0.744833 0 0 128 63
-0.04644775 0.07843018 0.7782764 0 0 128 63
-0.05096436 0.07852173 0.7463665 0 0 128 63
-0.05102539 0.0831604 0.7493496 0 0 128 63
-0.05371094 0.08276367 0.7459965 0 0 128 63
-0.05291748 0.0880127 0.7501125 0 0 128 63
-0.05560303 0.08743286 0.7454815 0 0 128 63
-0.05358887 0.09295654 0.748251 0 0 128 63
-0.0557251 0.09246826 0.7448673 0 0 128 63
-0.05731201 0.09234619 0.7424488 0 0 128 63
-0.05780029 0.09698486 0.740694 0 0 128 63
-0.06054688 0.0965271 0.737505 0 0 128 63
-0.05932617 0.1038208 0.7432804 0 0 128 63
-0.05963135 0.1010742 0.7406826 0 0 128 63
-0.06121826 0.09854126 0.7374935 0 0 128 63
-0.06066895 0.1069336 0.7436085 0 0 128 63
-0.06268311 0.1060791 0.7423916 0 0 128 63
-0.06225586 0.1109619 0.7439175 0 0 128 63
-0.06384277 0.1116943 0.7419949 0 0 128 63
-0.06335449 0.1166382 0.7431812 0 0 128 63
-0.06524658 0.1157227 0.7412968 0 0 128 63
-0.06555176 0.1207886 0.7435894 0 0 128 63
-0.06719971 0.119873 0.7406979 0 0 128 63
-0.06549072 0.1263733 0.7480679 0 0 128 63
-0.06719971 0.1257629 0.7460728 0 0 128 63
-0.06903076 0.124176 0.7402859 0 0 128 63
-0.06665039 0.1297607 0.7480488 0 0 128 63
-0.06896973 0.1304932 0.7462521 0 0 128 63
-0.07086182 0.1291199 0.7422695 0 0 128 63
-0.06945801 0.1364746 0.7480335 0 0 128 63
-0.07110596 0.1345215 0.7453251 0 0 128 63
-0.07171631 0.1407471 0.7491894 0 0 128 63
-0.07391357 0.1390381 0.7463932 0 0 128 63
-0.07385254 0.1445923 0.7496624 0 0 128 63
-0.07580566 0.1426086 0.7472095 0 0 128 63
-0.07452393 0.151001 0.7539501 0 0 128 63
-0.07623291 0.1486511 0.750246 0 0 128 63
-0.07574463 0.154541 0.7541828 0 0 128 63
-0.078125 0.153595 0.7508717 0 0 128 63
-0.07727051 0.1588135 0.7549114 0 0 128 63
-0.07995605 0.1583252 0.7511463 0 0 128 63
-0.0803833 0.1636658 0.7549572 0 0 128 63
-0.08239746 0.1624756 0.7520847 0 0 128 63
-0.08215332 0.1683655 0.7563877 0 0 128 63
-0.08410645 0.17453 0.7588978 0 0 128 63
-0.08398438 0.1721497 0.7569447 0 0 128 63
-0.08459473 0.1784363 0.7628307 0 0 128 63
-0.08575439 0.1766968 0.7595272 0 0 128 63
-0.08673096 0.1828003 0.7659855 0 0 128 63
-0.08843994 0.1867371 0.7668362 0 0 128 63
-0.03320312 0.04403687 0.7503681 0 0 128 63
-0.03399658 0.04742432 0.7491779 0 0 128 63
-0.03656006 0.04742432 0.7464504 0 0 128 63
-0.03533936 0.05175781 0.7509556 0 0 128 63
-0.03771973 0.05084229 0.7444248 0 0 128 63
-0.0368042 0.05633545 0.7519741 0 0 128 63
-0.03961182 0.05630493 0.7433949 0 0 128 63
-0.0390625 0.05575562 0.7406597 0 0 128 63
-0.03735352 0.06027222 0.7501965 0 0 128 63
-0.03930664 0.05944824 0.7433033 0 0 128 63
-0.04071045 0.06091309 0.742342 0 0 128 63
-0.0380249 0.06860352 0.7780743 0 0 128 63
-0.04229736 0.06500244 0.744524 0 0 128 63
-0.04077148 0.0718689 0.7781429 0 0 128 63
-0.04455566 0.06988525 0.7449932 0 0 128 63
-0.04205322 0.07620239 0.778101 0 0 128 63
-0.04382324 0.07659912 0.7758427 0 0 128 63
-0.04626465 0.07467651 0.7453022 0 0 128 63
-0.04431152 0.08078003 0.7741985 0 0 128 63
-0.04693604 0.07952881 0.7452183 0 0 128 63
-0.04534912 0.08532715 0.7742443 0 0 128 63
-0.04693604 0.08743286 0.7710781 0 0 128 63
-0.04864502 0.08441162 0.7514019 0 0 128 63
-0.04693604 0.08297729 0.7471409 0 0 128 63
-0.0456543 0.09039307 0.7729435 0 0 128 63
-0.04876709 0.08996582 0.7540836 0 0 128 63
-0.050354 0.08850098 0.7521954 0 0 128 63
-0.04815674 0.09317017 0.7689991 0 0 128 63
-0.04901123 0.09591675 0.7669697 0 0 128 63
-0.05053711 0.09448242 0.7543163 0 0 128 63
-0.05151367 0.09387207 0.7505207 0 0 128 63
-0.05371094 0.09573364 0.7451878 0 0 128 63
-0.05090332 0.09881592 0.7589817 0 0 128 63
-0.05175781 0.09945679 0.755724 0 0 128 63
-0.05352783 0.1009521 0.7520618 0 0 128 63
-0.05462646 0.09835815 0.7438297 0 0 128 63
-0.05371094 0.1037598 0.7489986 0 0 128 63
-0.05627441 0.1032104 0.7446384 0 0 128 63
-0.05462646 0.1087646 0.7479267 0 0 128 63
-0.05718994 0.1080933 0.746069 0 0 128 63
-0.0569458 0.1133118 0.74827 0 0 128 63
-0.05963135 0.1121521 0.7460918 0 0 128 63
-0.05865479 0.1182861 0.749052 0 0 128 63
-0.06103516 0.1169434 0.7459431 0 0 128 63
-0.05981445 0.1231079 0.7485104 0 0 128 63
-0.06225586 0.1218872 0.7458897 0 0 128 63
-0.06274414 0.1278076 0.7478886 0 0 128 63
-0.06268311 0.124939 0.7469463 0 0 128 63
-0.06445312 0.1322327 0.7485409 0 0 128 63
-0.06591797 0.1364136 0.7491856 0 0 128 63
-0.06781006 0.1413879 0.7508297 0 0 128 63
-0.06964111 0.1462708 0.7515888 0 0 128 63
-0.07037354 0.1517334 0.7550945 0 0 128 63
-0.07104492 0.149231 0.7518101 0 0 128 63
-0.0703125 0.1564331 0.7586079 0 0 128 63
-0.07299805 0.1551819 0.7549725 0 0 128 63
-0.07208252 0.1610413 0.7615986 0 0 128 63
-0.07275391 0.160614 0.7590427 0 0 128 63
-0.07507324 0.1602173 0.7565212 0 0 128 63
-0.07446289 0.1663818 0.7615948 0 0 128 63
-0.07568359 0.1653748 0.7593021 0 0 128 63
-0.07757568 0.1636963 0.7568111 0 0 128 63
-0.07617188 0.1705017 0.7615833 0 0 128 63
-0.07873535 0.1691589 0.7592449 0 0 128 63
-0.07836914 0.1748657 0.7628498 0 0 128 63
-0.08044434 0.1728821 0.7594891 0 0 128 63
-0.08007812 0.1790161 0.7642498 0 0 128 63
-0.08203125 0.1842651 0.7662296 0 0 128 63
-0.08355713 0.1884766 0.7665424 0 0 128 63
-0.02624512 0.04571533 0.7589817 0 0 128 63
-0.02825928 0.04522705 0.7550945 0 0 128 63
-0.03076172 0.04568481 0.752203 0 0 128 63
-0.02783203 0.04980469 0.7619724 0 0 128 63
-0.02722168 0.04846191 0.7589664 0 0 128 63
-0.02844238 0.04959106 0.7554951 0 0 128 63
-0.03051758 0.04904175 0.7508564 0 0 128 63
-0.02984619 0.0553894 0.7639446 0 0 128 63
-0.03009033 0.05303955 0.7551975 0 0 128 63
-0.03240967 0.05307007 0.7521152 0 0 128 63
-0.03033447 0.05682373 0.763937 0 0 128 63
-0.03118896 0.05953979 0.7592411 0 0 128 63
-0.03320312 0.05819702 0.7543736 0 0 128 63
-0.03466797 0.05667114 0.752142 0 0 128 63
-0.03491211 0.0612793 0.7547207 0 0 128 63
-0.03485107 0.06915283 0.7790966 0 0 128 63
-0.03656006 0.07321167 0.7790546 0 0 128 63
-0.03826904 0.07818604 0.7778606 0 0 128 63
-0.03936768 0.08279419 0.7778034 0 0 128 63
-0.04052734 0.08151245 0.7752171 0 0 128 63
-0.0401001 0.08547974 0.7777805 0 0 128 63
-0.04180908 0.08758545 0.7754078 0 0 128 63
-0.04315186 0.0921936 0.7740955 0 0 128 63
-0.04644775 0.09243774 0.7709293 0 0 128 63
-0.04650879 0.08969116 0.7539692 0 0 128 63
-0.043396 0.09643555 0.77318 0 0 128 63
-0.0458374 0.0960083 0.7695599 0 0 128 63
-0.04754639 0.09747314 0.7665234 0 0 128 63
-0.04797363 0.09384155 0.7539425 0 0 128 63
-0.04882812 0.09646606 0.7519207 0 0 128 63
-0.0456543 0.1016541 0.7698078 0 0 128 63
-0.04815674 0.1005249 0.7652111 0 0 128 63
-0.04986572 0.1019592 0.7541866 0 0 128 63
-0.04785156 0.1059265 0.7701778 0 0 128 63
-0.05041504 0.1051025 0.7485409 0 0 128 63
-0.04827881 0.1113281 0.768568 0 0 128 63
-0.04815674 0.1088562 0.7666149 0 0 128 63
-0.0512085 0.1099854 0.7482166 0 0 128 63
-0.04992676 0.1156616 0.770052 0 0 128 63
-0.05297852 0.1148987 0.7498684 0 0 128 63
-0.05395508 0.1200867 0.7539082 0 0 128 63
-0.05566406 0.1181946 0.7517529 0 0 128 63
-0.05584717 0.1247253 0.7552509 0 0 128 63
-0.05792236 0.1228943 0.7517643 0 0 128 63
-0.05700684 0.1296387 0.7558918 0 0 128 63
-0.05932617 0.1282349 0.7510357 0 0 128 63
-0.0592041 0.1341248 0.7545643 0 0 128 63
-0.06134033 0.1324768 0.7513103 0 0 128 63
-0.05993652 0.1387634 0.7539158 0 0 128 63
-0.06280518 0.1378479 0.751318 0 0 128 63
-0.06164551 0.143219 0.7534695 0 0 128 63
-0.06451416 0.1423645 0.7516384 0 0 128 63
-0.06317139 0.1496582 0.7584057 0 0 128 63
-0.06451416 0.1471558 0.7544231 0 0 128 63
-0.06707764 0.1479797 0.7516384 0 0 128 63
-0.06481934 0.1534729 0.7630062 0 0 128 63
-0.06665039 0.1521301 0.7585239 0 0 128 63
-0.06616211 0.1575012 0.7654896 0 0 128 63
-0.06903076 0.1569519 0.7588673 0 0 128 63
-0.06695557 0.1639709 0.7682781 0 0 128 63
-0.06829834 0.1619263 0.7647495 0 0 128 63
-0.07043457 0.1612244 0.7595043 0 0 128 63
-0.06835938 0.1677246 0.769762 0 0 128 63
-0.07098389 0.1665039 0.7637501 0 0 128 63
-0.07073975 0.1722412 0.7689419 0 0 128 63
-0.07342529 0.1709595 0.764864 0 0 128 63
-0.07324219 0.177002 0.7682896 0 0 128 63
-0.07470703 0.1753235 0.7660007 0 0 128 63
-0.07476807 0.1816711 0.7694569 0 0 128 63
-0.07751465 0.1803894 0.7664204 0 0 128 63
-0.07720947 0.18573 0.7689495 0 0 128 63
-0.07928467 0.1876831 0.7663403 0 0 128 63
-0.07659912 0.1889648 0.7681789 0 0 128 63
-0.07977295 0.1890259 0.7663326 0 0 128 63
-0.02203369 0.04736328 0.7646084 0 0 128 63
-0.02441406 0.04592896 0.7593784 0 0 128 63
-0.02429199 0.05126953 0.7645702 0 0 128 63
-0.02587891 0.0489502 0.759882 0 0 128 63
-0.02593994 0.0552063 0.7647419 0 0 128 63
-0.0269165 0.05804443 0.7652264 0 0 128 63
-0.0291748 0.05993652 0.7593937 0 0 128 63
-0.03015137 0.07070923 0.7796154 0 0 128 63
-0.03155518 0.07498169 0.7795887 0 0 128 63
-0.03375244 0.07962036 0.7787876 0 0 128 63
-0.03515625 0.08422852 0.7782726 0 0 128 63
-0.03704834 0.08847046 0.7775517 0 0 128 63
-0.03875732 0.09060669 0.7755795 0 0 128 63
-0.03900146 0.09368896 0.7755222 0 0 128 63
-0.04046631 0.09793091 0.7734852 0 0 128 63
-0.04187012 0.1026611 0.7728176 0 0 128 63
-0.04425049 0.1042175 0.7705326 0 0 128 63
-0.04321289 0.1075439 0.7724056 0 0 128 63
-0.0446167 0.107666 0.7704716 0 0 128 63
-0.04541016 0.1118774 0.7724094 0 0 128 63
-0.04528809 0.1116943 0.7694035 0 0 128 63
-0.04675293 0.117218 0.7734623 0 0 128 63
-0.04840088 0.1159668 0.7704678 0 0 128 63
-0.05004883 0.1174316 0.7494869 0 0 128 63
-0.04840088 0.1216431 0.774168 0 0 128 63
-0.04852295 0.1236572 0.7582645 0 0 128 63
-0.05047607 0.1211243 0.7560024 0 0 128 63
-0.04956055 0.1282959 0.7612171 0 0 128 63
-0.04998779 0.1262512 0.7586155 0 0 128 63
-0.05249023 0.1253052 0.7557583 0 0 128 63
-0.05151367 0.1318665 0.7615108 0 0 128 63
-0.05377197 0.1304016 0.7590008 0 0 128 63
-0.05316162 0.1368103 0.7619953 0 0 128 63
-0.05554199 0.1350098 0.7589283 0 0 128 63
-0.05407715 0.1398926 0.7625065 0 0 128 63
-0.05529785 0.1403198 0.7582188 0 0 128 63
-0.05737305 0.1402588 0.7558231 0 0 128 63
-0.05688477 0.1472168 0.7581348 0 0 128 63
-0.05841064 0.1444702 0.7552776 0 0 128 63
-0.05822754 0.1502991 0.7721577 0 0 128 63
-0.05853271 0.1513062 0.7691402 0 0 128 63
-0.06085205 0.1513977 0.7649136 0 0 128 63
-0.06018066 0.1478882 0.7552853 0 0 128 63
-0.05914307 0.1549683 0.7685833 0 0 128 63
-0.06158447 0.1541443 0.7651005 0 0 128 63
-0.0612793 0.1612244 0.7730503 0 0 128 63
-0.06182861 0.1593018 0.7696209 0 0 128 63
-0.06359863 0.1585999 0.766222 0 0 128 63
-0.06201172 0.1650391 0.7780056 0 0 128 63
-0.06451416 0.1643982 0.7749004 0 0 128 63
-0.06512451 0.1631775 0.7692013 0 0 128 63
-0.06451416 0.1684875 0.7770557 0 0 128 63
-0.06591797 0.168457 0.7736187 0 0 128 63
-0.06695557 0.1695862 0.7701435 0 0 128 63
-0.06658936 0.1737976 0.7737789 0 0 128 63
-0.06872559 0.1731873 0.7701511 0 0 128 63
-0.0682373 0.1786499 0.7729931 0 0 128 63
-0.07025146 0.1774292 0.7701283 0 0 128 63
-0.07000732 0.1852112 0.7769337 0 0 128 63
-0.07037354 0.1827698 0.7735043 0 0 128 63
-0.07147217 0.1808777 0.7701092 0 0 128 63
-0.07165527 0.1854553 0.7733364 0 0 128 63
-0.07250977 0.1875 0.7700024 0 0 128 63
-0.01971436 0.04879761 0.7635784 0 0 128 63
-0.02093506 0.05230713 0.7662258 0 0 128 63
-0.02130127 0.05706787 0.7660923 0 0 128 63
-0.02203369 0.05978394 0.7664356 0 0 128 63
-0.02679443 0.07269287 0.7793941 0 0 128 63
-0.02722168 0.07678223 0.7793217 0 0 128 63
-0.0289917 0.08163452 0.7774792 0 0 128 63
-0.03015137 0.08569336 0.777853 0 0 128 63
-0.03240967 0.09057617 0.7776318 0 0 128 63
-0.0324707 0.09533691 0.7771435 0 0 128 63
-0.03491211 0.09558105 0.7751369 0 0 128 63
-0.03411865 0.1000366 0.7771168 0 0 128 63
-0.03631592 0.09960938 0.7751141 0 0 128 63
-0.03723145 0.1045837 0.7734737 0 0 128 63
-0.03900146 0.109375 0.7721386 0 0 128 63
-0.04077148 0.1151428 0.7720928 0 0 128 63
-0.04101562 0.1128845 0.7701511 0 0 128 63
-0.04052734 0.1193237 0.7769909 0 0 128 63
-0.04321289 0.1181946 0.7747478 0 0 128 63
-0.04266357 0.1239624 0.778738 0 0 128 63
-0.04559326 0.123291 0.7751522 0 0 128 63
-0.04650879 0.1243591 0.7581425 0 0 128 63
-0.04492188 0.1281128 0.7803402 0 0 128 63
-0.04388428 0.1299438 0.7718983 0 0 128 63
-0.04663086 0.1288757 0.7640514 0 0 128 63
-0.04693604 0.1256714 0.7581348 0 0 128 63
-0.04516602 0.1334839 0.7718792 0 0 128 63
-0.04650879 0.132782 0.7699642 0 0 128 63
-0.04833984 0.1324768 0.7644787 0 0 128 63
-0.04968262 0.1370239 0.7645626 0 0 128 63
-0.0489502 0.1440735 0.771822 0 0 128 63
-0.05133057 0.1419678 0.7689953 0 0 128 63
-0.05114746 0.141571 0.764986 0 0 128 63
-0.05462646 0.1430054 0.7561207 0 0 128 63
-0.0524292 0.1470337 0.7737865 0 0 128 63
-0.05535889 0.1450806 0.7561092 0 0 128 63
-0.0512085 0.1503296 0.7767963 0 0 128 63
-0.05419922 0.1520081 0.7743206 0 0 128 63
-0.05493164 0.1553955 0.7730045 0 0 128 63
-0.05688477 0.1571655 0.7693386 0 0 128 63
-0.05822754 0.1613464 0.7718868 0 0 128 63
-0.05755615 0.1597595 0.7698956 0 0 128 63
-0.05889893 0.1661987 0.7795429 0 0 128 63
-0.05810547 0.1696167 0.7827053 0 0 128 63
-0.05999756 0.1698608 0.7773533 0 0 128 63
-0.06152344 0.1713562 0.774828 0 0 128 63
-0.0604248 0.1747437 0.7766895 0 0 128 63
-0.06317139 0.1750488 0.7745228 0 0 128 63
-0.06396484 0.1798096 0.7743435 0 0 128 63
-0.06549072 0.1852112 0.776701 0 0 128 63
-0.06640625 0.1841125 0.7744389 0 0 128 63
-0.06713867 0.1885986 0.7767086 0 0 128 63
-0.06903076 0.1872864 0.7738323 0 0 128 63
-0.02386475 0.08282471 0.7769947 0 0 128 63
-0.02526855 0.08425903 0.7750378 0 0 128 63
-0.02563477 0.08746338 0.777647 0 0 128 63
-0.02722168 0.09176636 0.7794018 0 0 128 63
-0.02764893 0.09747314 0.7828503 0 0 128 63
-0.02886963 0.09613037 0.7784405 0 0 128 63
-0.03033447 0.09838867 0.7749577 0 0 128 63
-0.02905273 0.1015015 0.7778187 0 0 128 63
-0.03106689 0.1015015 0.7749233 0 0 128 63
-0.0324707 0.1063843 0.7739506 0 0 128 63
-0.03424072 0.1113281 0.7738438 0 0 128 63
-0.03540039 0.1156311 0.7735538 0 0 128 63
-0.03765869 0.1139832 0.7699566 0 0 128 63
-0.03729248 0.1200562 0.7768002 0 0 128 63
-0.0390625 0.1252136 0.7786045 0 0 128 63
-0.04052734 0.1293945 0.7774105 0 0 128 63
-0.04119873 0.1312256 0.7747364 0 0 128 63
