# .PCD v.7 - Point Cloud Data file format
VERSION .7
FIELDS x y z _
SIZE 4 4 4 1
TYPE F F F U
COUNT 1 1 1 4
WIDTH 1123
HEIGHT 1
VIEWPOINT 0 0 0 1 0 0 0
POINTS 1123
DATA ascii
-0.1592226 0.003906997 0.7046161 0 0 128 63
-0.2125104 0.01571388 0.7415253 0 0 128 63
-0.2101848 0.01499444 0.7394286 0 0 128 63
-0.2070799 0.01446579 0.7365471 0 0 128 63
-0.2039894 0.01362624 0.7319732 0 0 128 63
-0.1999843 0.01345057 0.7285877 0 0 128 63
-0.1959365 0.01278926 0.7259859 0 0 128 63
-0.1925266 0.01235051 0.7230143 0 0 128 63
-0.1837007 0.01160473 0.7170677 0 0 128 63
-0.1790999 0.01090126 0.7149504 0 0 128 63
-0.175058 0.01046079 0.712428 0 0 128 63
-0.1713064 0.009973366 0.7092449 0 0 128 63
-0.1669596 0.009660786 0.7063076 0 0 128 63
-0.162374 0.008672953 0.7058695 0 0 128 63
-0.2090693 0.0191561 0.7391247 0 0 128 63
-0.2057914 0.0188341 0.7367309 0 0 128 63
-0.2030814 0.01854449 0.7315938 0 0 128 63
-0.1991808 0.01807647 0.7286199 0 0 128 63
-0.1953446 0.01760478 0.7256908 0 0 128 63
-0.1916398 0.01710434 0.7222783 0 0 128 63
-0.1876611 0.01682974 0.7195708 0 0 128 63
-0.1832066 0.01624623 0.7179543 0 0 128 63
-0.1779941 0.015774 0.7163695 0 0 128 63
-0.1732987 0.01542105 0.7138889 0 0 128 63
-0.1696593 0.01467664 0.7107151 0 0 128 63
-0.1657063 0.01431355 0.7072447 0 0 128 63
-0.1619418 0.01368809 0.7064618 0 0 128 63
-0.2045209 0.02412694 0.7359498 0 0 128 63
-0.2018691 0.02347164 0.7333019 0 0 128 63
-0.1988137 0.02287965 0.7283455 0 0 128 63
-0.1949208 0.02241383 0.7255462 0 0 128 63
-0.1911022 0.02193135 0.7223929 0 0 128 63
-0.1868486 0.02131655 0.7198665 0 0 128 63
-0.1826261 0.02118082 0.7177747 0 0 128 63
-0.1775732 0.02061938 0.7162097 0 0 128 63
-0.1726598 0.0201246 0.713793 0 0 128 63
-0.1688693 0.0196544 0.7106336 0 0 128 63
-0.165115 0.01917778 0.7074232 0 0 128 63
-0.1616279 0.01779443 0.7062273 0 0 128 63
-0.2038093 0.02983589 0.7354328 0 0 128 63
-0.2014473 0.02898825 0.7329869 0 0 128 63
-0.1983933 0.02837967 0.7280314 0 0 128 63
-0.1944659 0.027924 0.7253096 0 0 128 63
-0.1905544 0.02744458 0.7223704 0 0 128 63
-0.1865295 0.02700318 0.7198091 0 0 128 63
-0.1823424 0.02655838 0.7175153 0 0 128 63
-0.1775097 0.02608117 0.7150784 0 0 128 63
-0.1724643 0.02562688 0.7133052 0 0 128 63
-0.1684407 0.0252992 0.7107344 0 0 128 63
-0.1653726 0.02466809 0.7079444 0 0 128 63
-0.2030978 0.03410533 0.7349218 0 0 128 63
-0.2009816 0.03363193 0.7325433 0 0 128 63
-0.1973555 0.03331295 0.7293199 0 0 128 63
-0.1930386 0.0329193 0.72618 0 0 128 63
-0.1893204 0.03218394 0.7230622 0 0 128 63
-0.1852123 0.03200142 0.720424 0 0 128 63
-0.1816132 0.03123487 0.7171122 0 0 128 63
-0.1773095 0.03090407 0.7144127 0 0 128 63
-0.1725379 0.03020853 0.7130669 0 0 128 63
-0.1678872 0.02931698 0.7105212 0 0 128 63
-0.165314 0.02878409 0.7087387 0 0 128 63
-0.1994483 0.03649396 0.7323809 0 0 128 63
-0.1968807 0.03703967 0.730598 0 0 128 63
-0.1932301 0.03577248 0.7280712 0 0 128 63
-0.1878851 0.03570084 0.7241211 0 0 128 63
-0.1842194 0.03676558 0.7211332 0 0 128 63
-0.180432 0.03624601 0.7178748 0 0 128 63
-0.1765556 0.03554075 0.7155516 0 0 128 63
-0.1726502 0.03428213 0.7133985 0 0 128 63
-0.1967313 0.04180283 0.7304747 0 0 128 63
-0.1825767 0.04016053 0.7206645 0 0 128 63
-0.1794413 0.04035916 0.7184892 0 0 128 63
-0.1774221 0.03956246 0.717092 0 0 128 63
-0.1812543 -0.01327312 0.7225745 0 0 128 63
-0.1787134 -0.01316225 0.7208812 0 0 128 63
-0.2082556 0.001399323 0.7410671 0 0 128 63
-0.1567688 -0.005136879 0.7053853 0 0 128 63
-0.1532753 -0.004933471 0.703773 0 0 128 63
-0.212005 0.007527972 0.7448593 0 0 128 63
-0.2098157 0.005241532 0.7426403 0 0 128 63
-0.207563 0.004412238 0.7405744 0 0 128 63
-0.1590331 -0.001499686 0.7069408 0 0 128 63
-0.1563999 -0.001369501 0.7053574 0 0 128 63
-0.1524007 -0.001514084 0.7032537 0 0 128 63
-0.1490693 -0.003219777 0.7024715 0 0 128 63
-0.2126351 0.01062485 0.7440666 0 0 128 63
-0.2101337 0.009584742 0.7423361 0 0 128 63
-0.2076696 0.009064507 0.7406293 0 0 128 63
-0.1561221 0.003795367 0.7050523 0 0 128 63
-0.1521041 0.003361022 0.7028252 0 0 128 63
-0.1483302 0.002670094 0.7019347 0 0 128 63
-0.2124951 0.01504765 0.7439514 0 0 128 63
-0.2107941 0.01354468 0.7427778 0 0 128 63
-0.1585881 0.009362144 0.7065877 0 0 128 63
-0.1557464 0.00861525 0.7052284 0 0 128 63
-0.1513071 0.008215699 0.7033681 0 0 128 63
-0.1476101 0.01003769 0.7026221 0 0 128 63
-0.2119651 0.02001927 0.7437663 0 0 128 63
-0.2098352 0.02004176 0.7420861 0 0 128 63
-0.206199 0.0207447 0.7395614 0 0 128 63
-0.1588071 0.01402442 0.7068725 0 0 128 63
-0.1551718 0.01348768 0.7054182 0 0 128 63
-0.1508292 0.0134087 0.7038673 0 0 128 63
-0.2113045 0.02491295 0.74415 0 0 128 63
-0.2086948 0.02456672 0.7415809 0 0 128 63
-0.2056322 0.02395967 0.7391551 0 0 128 63
-0.1586087 0.01910696 0.7068662 0 0 128 63
-0.1546824 0.01838613 0.705363 0 0 128 63
-0.1507874 0.01766982 0.7043076 0 0 128 63
-0.2107578 0.02981921 0.7443085 0 0 128 63
-0.2080173 0.02946133 0.7420035 0 0 128 63
-0.2051872 0.02944512 0.738824 0 0 128 63
-0.1620196 0.02494207 0.7089037 0 0 128 63
-0.1586733 0.0236789 0.7070951 0 0 128 63
-0.1540251 0.02330326 0.7056646 0 0 128 63
-0.1513397 0.02171866 0.7051607 0 0 128 63
-0.2097696 0.03482518 0.745631 0 0 128 63
-0.2071963 0.03452227 0.7417613 0 0 128 63
-0.2042565 0.03427833 0.7381586 0 0 128 63
-0.2010257 0.03551035 0.7359128 0 0 128 63
-0.1695337 0.0313878 0.7140886 0 0 128 63
-0.16688 0.03154858 0.7122475 0 0 128 63
-0.1623704 0.0299884 0.7095318 0 0 128 63
-0.157724 0.02863691 0.708039 0 0 128 63
-0.1537772 0.0276256 0.7068271 0 0 128 63
-0.2094019 0.03963666 0.7453563 0 0 128 63
-0.2062025 0.03969349 0.7418391 0 0 128 63
-0.2027788 0.03928354 0.7379245 0 0 128 63
-0.1991705 0.03911644 0.7346983 0 0 128 63
-0.1947875 0.0388289 0.7315727 0 0 128 63
-0.1909182 0.03815401 0.728892 0 0 128 63
-0.1871755 0.0385232 0.7262948 0 0 128 63
-0.1738448 0.03798079 0.7170514 0 0 128 63
-0.1699423 0.03612197 0.7143525 0 0 128 63
-0.1666137 0.03503275 0.7120485 0 0 128 63
-0.1625933 0.03446225 0.7096682 0 0 128 63
-0.1580246 0.03335318 0.7092625 0 0 128 63
-0.2053911 0.04462514 0.7411631 0 0 128 63
-0.2021891 0.04417762 0.7381716 0 0 128 63
-0.198594 0.04368177 0.7344971 0 0 128 63
-0.1945845 0.04337495 0.7314133 0 0 128 63
-0.1905964 0.04275964 0.7290556 0 0 128 63
-0.1865874 0.04229448 0.7262769 0 0 128 63
-0.1829378 0.04212908 0.7233409 0 0 128 63
-0.1780749 0.04223259 0.7201707 0 0 128 63
-0.1742045 0.04083459 0.7172892 0 0 128 63
-0.1701954 0.04036943 0.7145107 0 0 128 63
-0.1661866 0.03991203 0.7118674 0 0 128 63
-0.1615454 0.03949516 0.7103406 0 0 128 63
-0.1580871 0.03927346 0.7097684 0 0 128 63
-0.1999654 0.04845355 0.7382345 0 0 128 63
-0.1972954 0.04853844 0.7347934 0 0 128 63
-0.1940979 0.0481018 0.7318677 0 0 128 63
-0.1900035 0.04764959 0.7292836 0 0 128 63
-0.1859455 0.04727898 0.7260612 0 0 128 63
-0.1822643 0.04647658 0.722856 0 0 128 63
-0.1777952 0.04611194 0.7199101 0 0 128 63
-0.173562 0.04571074 0.717635 0 0 128 63
-0.1695446 0.04524397 0.714876 0 0 128 63
-0.1657159 0.04474374 0.7117916 0 0 128 63
-0.1614353 0.04459795 0.7105709 0 0 128 63
-0.2029715 0.05572946 0.7408304 0 0 128 63
-0.2000785 0.05426898 0.73883 0 0 128 63
-0.1966609 0.05345822 0.7351107 0 0 128 63
-0.193727 0.05295476 0.7315905 0 0 128 63
-0.1895116 0.05254225 0.7292772 0 0 128 63
-0.1851446 0.05214344 0.7260472 0 0 128 63
-0.1815843 0.051326 0.7226078 0 0 128 63
-0.1773376 0.05099653 0.7198262 0 0 128 63
-0.1730526 0.05061264 0.717667 0 0 128 63
-0.1690434 0.05014747 0.7148885 0 0 128 63
-0.1649854 0.04973923 0.711589 0 0 128 63
-0.1615237 0.04888612 0.7104897 0 0 128 63
-0.2027584 0.05851679 0.7406712 0 0 128 63
-0.2001001 0.05891037 0.7383391 0 0 128 63
-0.196448 0.05830465 0.7349849 0 0 128 63
-0.1925222 0.05809619 0.7321827 0 0 128 63
-0.1885081 0.05726295 0.72975 0 0 128 63
-0.1843688 0.05692155 0.7262504 0 0 128 63
-0.1806161 0.05641131 0.722889 0 0 128 63
-0.1766683 0.05595326 0.720153 0 0 128 63
-0.1722136 0.05567231 0.7178135 0 0 128 63
-0.1684739 0.05458947 0.7152243 0 0 128 63
-0.1642424 0.0543628 0.7124543 0 0 128 63
-0.2004077 0.06281364 0.7390231 0 0 128 63
-0.1949587 0.06379836 0.73524 0 0 128 63
-0.1910961 0.06292839 0.7325647 0 0 128 63
-0.1876354 0.06198453 0.7301685 0 0 128 63
-0.1835688 0.06187452 0.726943 0 0 128 63
-0.1795142 0.06141738 0.7242678 0 0 128 63
-0.1755649 0.06093749 0.7213957 0 0 128 63
-0.1715989 0.06012389 0.719054 0 0 128 63
-0.1390797 0.05794125 0.693206 0 0 128 63
-0.1366983 0.05743945 0.6912088 0 0 128 63
-0.1905581 0.06694344 0.7321751 0 0 128 63
-0.1882671 0.06667764 0.7305874 0 0 128 63
-0.1829335 0.06590257 0.7268914 0 0 128 63
-0.1786606 0.06573878 0.7239286 0 0 128 63
-0.1750943 0.06514925 0.7214577 0 0 128 63
-0.1723373 0.06342333 0.7195525 0 0 128 63
-0.138917 0.06196129 0.6935402 0 0 128 63
-0.1365933 0.06126937 0.6914245 0 0 128 63
-0.1401065 0.06788558 0.6971807 0 0 128 63
-0.1379016 0.0668119 0.6951691 0 0 128 63
-0.1353382 0.06475461 0.6938864 0 0 128 63
-0.1400667 0.07092734 0.6971405 0 0 128 63
-0.1371497 0.07129192 0.695116 0 0 128 63
-0.1342861 0.07095966 0.6931313 0 0 128 63
-0.1360487 0.07561661 0.6943347 0 0 128 63
-0.1345925 0.07451028 0.6933292 0 0 128 63
-0.1454246 -0.001172036 0.7040288 0 0 128 63
-0.141436 -0.0008748006 0.7020356 0 0 128 63
-0.1393614 -0.0006225854 0.6993788 0 0 128 63
-0.1445361 0.002991689 0.7034093 0 0 128 63
-0.1409512 0.002443425 0.7016858 0 0 128 63
-0.1376404 0.002128778 0.7006079 0 0 128 63
-0.1446843 0.007629257 0.7037668 0 0 128 63
-0.1394668 0.007340807 0.7026958 0 0 128 63
-0.1482456 0.01165644 0.7054901 0 0 128 63
-0.1438033 0.01275299 0.7048386 0 0 128 63
-0.1394671 0.01235287 0.7030499 0 0 128 63
-0.1477129 0.01862479 0.705092 0 0 128 63
-0.1435604 0.01765141 0.7042697 0 0 128 63
-0.1395034 0.01727817 0.7030548 0 0 128 63
-0.1502037 0.0238349 0.7067981 0 0 128 63
-0.1477361 0.02293998 0.7057666 0 0 128 63
-0.1431282 0.02255552 0.7041274 0 0 128 63
-0.1393544 0.02174679 0.7029332 0 0 128 63
-0.1506762 0.02861457 0.7077147 0 0 128 63
-0.1468514 0.02791376 0.7064848 0 0 128 63
-0.1433517 0.02711012 0.7053792 0 0 128 63
-0.1550543 0.03380948 0.7101213 0 0 128 63
-0.1509523 0.03319096 0.7080902 0 0 128 63
-0.1459792 0.03271753 0.7074827 0 0 128 63
-0.207523 0.0446693 0.746872 0 0 128 63
-0.2041415 0.04495681 0.7441199 0 0 128 63
-0.1575595 0.03888383 0.7124465 0 0 128 63
-0.154846 0.03840013 0.7110012 0 0 128 63
-0.1501072 0.03769614 0.709202 0 0 128 63
-0.1467551 0.03579536 0.7080082 0 0 128 63
-0.2069075 0.05026256 0.7471322 0 0 128 63
-0.2036334 0.04984792 0.7442546 0 0 128 63
-0.2006538 0.05019613 0.7420273 0 0 128 63
-0.1570395 0.0441513 0.7121512 0 0 128 63
-0.1534743 0.04356994 0.7118251 0 0 128 63
-0.150881 0.04337118 0.7108387 0 0 128 63
-0.2065599 0.05515599 0.7467019 0 0 128 63
-0.2035117 0.05455887 0.7437959 0 0 128 63
-0.1994837 0.05405773 0.7408522 0 0 128 63
-0.1572378 0.04955878 0.7120275 0 0 128 63
-0.1531607 0.04882459 0.7123973 0 0 128 63
-0.1501926 0.0485974 0.7103398 0 0 128 63
-0.2076513 0.05983368 0.7501441 0 0 128 63
-0.2059582 0.06006347 0.7473462 0 0 128 63
-0.2030421 0.05983513 0.7440267 0 0 128 63
-0.1656356 0.05736149 0.7173633 0 0 128 63
-0.1606261 0.05545919 0.7145054 0 0 128 63
-0.1572111 0.0540188 0.7134066 0 0 128 63
-0.1524237 0.05342586 0.7118673 0 0 128 63
-0.1502393 0.05176637 0.7103592 0 0 128 63
-0.204247 0.06506281 0.7477615 0 0 128 63
-0.2022637 0.064601 0.7440892 0 0 128 63
-0.1981197 0.06449103 0.7400155 0 0 128 63
-0.1952578 0.06290747 0.737885 0 0 128 63
-0.1923941 0.06257522 0.7359003 0 0 128 63
-0.1859343 0.06393476 0.7314145 0 0 128 63
-0.1689309 0.06111831 0.7196333 0 0 128 63
-0.1657199 0.06027773 0.7180859 0 0 128 63
-0.1613365 0.05979478 0.7164738 0 0 128 63
-0.2035148 0.06859337 0.7472393 0 0 128 63
-0.2005446 0.06965479 0.7451751 0 0 128 63
-0.1971257 0.06891286 0.7414963 0 0 128 63
-0.1938794 0.06861232 0.7374673 0 0 128 63
-0.1903123 0.0681154 0.7345554 0 0 128 63
-0.185355 0.06773412 0.7309971 0 0 128 63
-0.181266 0.06831422 0.7281588 0 0 128 63
-0.1783557 0.06783595 0.7261423 0 0 128 63
-0.1734808 0.06811395 0.7227603 0 0 128 63
-0.1693741 0.06571434 0.7202466 0 0 128 63
-0.1649126 0.06535601 0.7181398 0 0 128 63
-0.1611943 0.06459989 0.7160789 0 0 128 63
-0.1993926 0.07338769 0.7443606 0 0 128 63
-0.1965289 0.07305543 0.7423759 0 0 128 63
-0.1923239 0.07333975 0.7383519 0 0 128 63
-0.1889364 0.07287031 0.7345417 0 0 128 63
-0.1849503 0.07239837 0.7317114 0 0 128 63
-0.1810102 0.07191288 0.7287779 0 0 128 63
-0.1769597 0.07145709 0.726072 0 0 128 63
-0.1725232 0.07115942 0.7235439 0 0 128 63
-0.1684056 0.07047194 0.7211115 0 0 128 63
-0.1638106 0.07019021 0.7188109 0 0 128 63
-0.1600626 0.06979395 0.7164896 0 0 128 63
-0.1569715 0.06952028 0.7149555 0 0 128 63
-0.1352792 0.06789967 0.6962665 0 0 128 63
-0.1338229 0.06679335 0.6952611 0 0 128 63
-0.1907621 0.07812762 0.7383555 0 0 128 63
-0.1878555 0.07750097 0.735612 0 0 128 63
-0.1841979 0.07738794 0.7322848 0 0 128 63
-0.1804304 0.07685167 0.728964 0 0 128 63
-0.1759887 0.07649919 0.7270514 0 0 128 63
-0.1713244 0.07588156 0.72471 0 0 128 63
-0.1674092 0.07389488 0.7221766 0 0 128 63
-0.1630045 0.07331353 0.7191241 0 0 128 63
-0.1596221 0.07263988 0.716781 0 0 128 63
-0.1384198 0.07335509 0.6996392 0 0 128 63
-0.1356682 0.07255688 0.6968214 0 0 128 63
-0.1332084 0.07058474 0.6956306 0 0 128 63
-0.186278 0.08135676 0.7352324 0 0 128 63
-0.1834061 0.08197207 0.733238 0 0 128 63
-0.1787924 0.08189943 0.7298357 0 0 128 63
-0.1748631 0.081051 0.7273168 0 0 128 63
-0.1713051 0.07961953 0.7248551 0 0 128 63
-0.13869 0.07716156 0.7014337 0 0 128 63
-0.1356818 0.07757055 0.6971822 0 0 128 63
-0.1328924 0.07763486 0.6957881 0 0 128 63
-0.1773598 0.08464054 0.7290337 0 0 128 63
-0.1756416 0.08444118 0.7278429 0 0 128 63
-0.1363972 0.08059084 0.7006408 0 0 128 63
-0.1343588 0.08091059 0.6984144 0 0 128 63
-0.1334304 0.002018724 0.7025565 0 0 128 63
-0.1305573 0.002457868 0.7017789 0 0 128 63
-0.1373179 0.007532554 0.7036074 0 0 128 63
-0.1335483 0.006973458 0.7028207 0 0 128 63
-0.1302358 0.006663766 0.7015387 0 0 128 63
-0.1361319 0.01226862 0.7046314 0 0 128 63
-0.132816 0.01195184 0.7031713 0 0 128 63
-0.1301907 0.01130345 0.7014883 0 0 128 63
-0.1353727 0.01718504 0.704754 0 0 128 63
-0.1323851 0.01688089 0.7029874 0 0 128 63
-0.1298132 0.0148919 0.7012118 0 0 128 63
-0.1363246 0.02229046 0.7038044 0 0 128 63
-0.132351 0.02164739 0.7029442 0 0 128 63
-0.1403687 0.02799906 0.7055885 0 0 128 63
-0.1369133 0.02652619 0.7048714 0 0 128 63
-0.1329409 0.02472875 0.7033406 0 0 128 63
-0.1433182 0.03308086 0.7068527 0 0 128 63
-0.1399831 0.03238094 0.7069764 0 0 128 63
-0.1371175 0.03164091 0.706209 0 0 128 63
-0.1480119 0.04040901 0.7108893 0 0 128 63
-0.1436106 0.03803237 0.7088201 0 0 128 63
-0.139531 0.03769295 0.7076842 0 0 128 63
-0.1367446 0.03651876 0.7059304 0 0 128 63
-0.1475425 0.04324984 0.7112281 0 0 128 63
-0.1430443 0.04264289 0.7101391 0 0 128 63
-0.1512138 0.04776432 0.7122684 0 0 128 63
-0.1470346 0.04796927 0.7118032 0 0 128 63
-0.2059607 0.06261951 0.7501771 0 0 128 63
-0.1540059 0.05659141 0.7141687 0 0 128 63
-0.1507407 0.05567948 0.7131248 0 0 128 63
-0.147494 0.05303609 0.7123443 0 0 128 63
-0.2062537 0.06439939 0.7528069 0 0 128 63
-0.2052543 0.06543458 0.7502841 0 0 128 63
-0.1565373 0.06043103 0.7186466 0 0 128 63
-0.1540508 0.05929905 0.7170652 0 0 128 63
-0.1498767 0.0587273 0.7142516 0 0 128 63
-0.1468239 0.05692069 0.7128371 0 0 128 63
-0.2037993 0.07003784 0.7500384 0 0 128 63
-0.2016892 0.07206655 0.7471758 0 0 128 63
-0.1562265 0.06403747 0.7193291 0 0 128 63
-0.1532953 0.06404889 0.7172961 0 0 128 63
-0.1492215 0.0634484 0.7144732 0 0 128 63
-0.2026395 0.07456908 0.7498531 0 0 128 63
-0.2001475 0.07522701 0.7460937 0 0 128 63
-0.1954558 0.074999 0.7428406 0 0 128 63
-0.1933514 0.07531723 0.7413798 0 0 128 63
-0.1561961 0.06944564 0.7185557 0 0 128 63
-0.1534875 0.06909273 0.7174087 0 0 128 63
-0.1493259 0.06830858 0.7145257 0 0 128 63
-0.2009833 0.07935464 0.7490903 0 0 128 63
-0.1987656 0.07876982 0.7462159 0 0 128 63
-0.1944061 0.07935084 0.7440071 0 0 128 63
-0.1916532 0.07863527 0.7401884 0 0 128 63
-0.1876889 0.08028436 0.7374322 0 0 128 63
-0.1683016 0.07755206 0.7252144 0 0 128 63
-0.1656896 0.07633354 0.7235818 0 0 128 63
-0.1616928 0.07583892 0.7203337 0 0 128 63
-0.1575427 0.074693 0.7179165 0 0 128 63
-0.1544966 0.07246999 0.7162693 0 0 128 63
-0.1503576 0.07224464 0.715225 0 0 128 63
-0.1996696 0.08369065 0.7493783 0 0 128 63
-0.1973254 0.08412171 0.7477507 0 0 128 63
-0.1933187 0.08431736 0.744667 0 0 128 63
-0.1901394 0.08357213 0.7399296 0 0 128 63
-0.1864793 0.08345993 0.7373917 0 0 128 63
-0.1816343 0.08390039 0.7332183 0 0 128 63
-0.1726856 0.0829754 0.7278271 0 0 128 63
-0.1692466 0.08152498 0.726549 0 0 128 63
-0.1644119 0.07924835 0.7249436 0 0 128 63
-0.1604486 0.0793177 0.721789 0 0 128 63
-0.1572957 0.07830553 0.7200121 0 0 128 63
-0.197059 0.08760586 0.7475517 0 0 128 63
-0.1927889 0.08839593 0.7445869 0 0 128 63
-0.1888791 0.08831622 0.7413889 0 0 128 63
-0.1848052 0.08798635 0.7387038 0 0 128 63
-0.18065 0.08781998 0.7355152 0 0 128 63
-0.1770556 0.0871349 0.7320209 0 0 128 63
-0.172259 0.08679059 0.7296597 0 0 128 63
-0.1684181 0.0864768 0.7274221 0 0 128 63
-0.1392137 0.08272792 0.7038023 0 0 128 63
-0.1367844 0.08262886 0.7030916 0 0 128 63
-0.1323334 0.08351971 0.7016641 0 0 128 63
-0.1825031 0.0944536 0.7374284 0 0 128 63
-0.180736 0.09237388 0.7362114 0 0 128 63
-0.1746161 0.09072645 0.7319736 0 0 128 63
-0.1687537 0.09074927 0.7279077 0 0 128 63
-0.1389651 0.08597981 0.7036166 0 0 128 63
-0.1357524 0.08740443 0.7035461 0 0 128 63
-0.1315701 0.08722765 0.7017685 0 0 128 63
-0.1280937 0.08814071 0.6997187 0 0 128 63
-0.1791974 0.09738427 0.7351237 0 0 128 63
-0.1756792 0.09697607 0.7326853 0 0 128 63
-0.1350965 0.0921558 0.7035635 0 0 128 63
-0.1307544 0.09199782 0.7014723 0 0 128 63
-0.1270779 0.09124591 0.6986365 0 0 128 63
-0.1290452 0.09585037 0.700347 0 0 128 63
-0.1265731 0.09593849 0.6986322 0 0 128 63
-0.127196 0.00290988 0.7018799 0 0 128 63
-0.1245017 0.002736256 0.7024458 0 0 128 63
-0.126924 0.006468715 0.7016765 0 0 128 63
-0.1226296 0.006270522 0.7010518 0 0 128 63
-0.1190228 0.006488569 0.6998475 0 0 128 63
-0.1268601 0.01165085 0.7019152 0 0 128 63
-0.1222365 0.01097983 0.7009515 0 0 128 63
-0.1183651 0.009043561 0.6993811 0 0 128 63
-0.1290077 0.01808426 0.7030741 0 0 128 63
-0.1261987 0.01664373 0.7022381 0 0 128 63
-0.1221795 0.01464826 0.7020035 0 0 128 63
-0.1284843 0.0220577 0.7043985 0 0 128 63
-0.1255126 0.02107784 0.7038831 0 0 128 63
-0.1331391 0.02819387 0.7074626 0 0 128 63
-0.1297894 0.02641504 0.705864 0 0 128 63
-0.1259034 0.02446055 0.7045459 0 0 128 63
-0.1365467 0.03392315 0.7082378 0 0 128 63
-0.1326956 0.03234747 0.7082777 0 0 128 63
-0.1295084 0.03237097 0.7070138 0 0 128 63
-0.1365924 0.03753622 0.7085589 0 0 128 63
-0.1331819 0.03661184 0.7078055 0 0 128 63
-0.1265334 0.03889525 0.7049236 0 0 128 63
-0.1406783 0.04394344 0.7110621 0 0 128 63
-0.1367754 0.04239894 0.7098218 0 0 128 63
-0.1331804 0.04194744 0.7076955 0 0 128 63
-0.1280827 0.04052552 0.703253 0 0 128 63
-0.1430458 0.05051433 0.713894 0 0 128 63
-0.1407854 0.047971 0.7122556 0 0 128 63
-0.136701 0.04689033 0.7116991 0 0 128 63
-0.1428753 0.05363491 0.7146757 0 0 128 63
-0.1393605 0.05341525 0.7135865 0 0 128 63
-0.1469038 0.05932864 0.7153167 0 0 128 63
-0.1434603 0.05846554 0.7141489 0 0 128 63
-0.1393164 0.05783326 0.7137116 0 0 128 63
-0.1546519 0.06595217 0.7206632 0 0 128 63
-0.1488428 0.06527816 0.7166371 0 0 128 63
-0.1430933 0.06341745 0.7141783 0 0 128 63
-0.1383732 0.06299141 0.7130363 0 0 128 63
-0.1358973 0.06217688 0.7113224 0 0 128 63
-0.1545454 0.06734584 0.7205836 0 0 128 63
-0.1517218 0.06919004 0.7186176 0 0 128 63
-0.1476165 0.06896341 0.7157713 0 0 128 63
-0.1428697 0.06833483 0.7136227 0 0 128 63
-0.1380842 0.06766925 0.7125732 0 0 128 63
-0.1355194 0.06712109 0.71104 0 0 128 63
-0.1540051 0.07441373 0.7201799 0 0 128 63
-0.1515025 0.07437927 0.7187486 0 0 128 63
-0.14741 0.07381288 0.7156083 0 0 128 63
-0.1422685 0.07332618 0.7137684 0 0 128 63
-0.1386434 0.0730114 0.7119654 0 0 128 63
-0.1662286 0.08296255 0.7286224 0 0 128 63
-0.1629522 0.08204273 0.7267016 0 0 128 63
-0.1595461 0.0818357 0.7239923 0 0 128 63
-0.1545979 0.08015639 0.7212436 0 0 128 63
-0.1502681 0.07892758 0.7194963 0 0 128 63
-0.1460561 0.0786484 0.7166153 0 0 128 63
-0.141199 0.07792795 0.7145604 0 0 128 63
-0.1379716 0.07772498 0.7121758 0 0 128 63
-0.1955321 0.08997802 0.748917 0 0 128 63
-0.1914288 0.09020494 0.7460702 0 0 128 63
-0.1653229 0.08588324 0.7287936 0 0 128 63
-0.1621564 0.08556823 0.7278895 0 0 128 63
-0.1579314 0.08523522 0.7251709 0 0 128 63
-0.1557596 0.08342426 0.7225767 0 0 128 63
-0.1503472 0.08407348 0.7212542 0 0 128 63
-0.1449909 0.08251466 0.7175457 0 0 128 63
-0.1287557 0.08293325 0.7026333 0 0 128 63
-0.194144 0.09405888 0.7491544 0 0 128 63
-0.1903315 0.09420832 0.7466033 0 0 128 63
-0.1868536 0.09315827 0.7428849 0 0 128 63
-0.1831158 0.09301214 0.7402931 0 0 128 63
-0.178583 0.09282211 0.7371502 0 0 128 63
-0.1750912 0.09240469 0.7347302 0 0 128 63
-0.1705224 0.09186422 0.7319382 0 0 128 63
-0.1649957 0.09134062 0.7296599 0 0 128 63
-0.1609494 0.09058665 0.7284702 0 0 128 63
-0.1567685 0.08960572 0.7256851 0 0 128 63
-0.1526448 0.08983029 0.7228242 0 0 128 63
-0.1277421 0.08663581 0.7037405 0 0 128 63
-0.1924988 0.09844843 0.7500238 0 0 128 63
-0.1895175 0.09846756 0.7477532 0 0 128 63
-0.1856399 0.09784251 0.7430671 0 0 128 63
-0.1825346 0.09775851 0.7401411 0 0 128 63
-0.1788174 0.09680963 0.7372965 0 0 128 63
-0.1734375 0.09646384 0.7346315 0 0 128 63
-0.1689809 0.09679975 0.7336386 0 0 128 63
-0.1650906 0.09571355 0.7311276 0 0 128 63
-0.1842362 0.1018314 0.744685 0 0 128 63
-0.1806619 0.1028109 0.7414531 0 0 128 63
-0.1772892 0.102006 0.737838 0 0 128 63
-0.1730379 0.1019521 0.735052 0 0 128 63
-0.1684054 0.1017516 0.7334018 0 0 128 63
-0.1655435 0.1001648 0.7317275 0 0 128 63
-0.1315643 0.09658293 0.7045252 0 0 128 63
-0.1288339 0.09781893 0.7034377 0 0 128 63
-0.1263414 0.09832031 0.7008957 0 0 128 63
-0.1724914 0.1071775 0.7365176 0 0 128 63
-0.1169043 0.005980039 0.7008143 0 0 128 63
-0.1187507 0.01242097 0.7020684 0 0 128 63
-0.1150919 0.009936616 0.7010623 0 0 128 63
-0.1116086 0.008988729 0.7007801 0 0 128 63
-0.1219417 0.01710974 0.7042623 0 0 128 63
-0.1187863 0.01584228 0.703296 0 0 128 63
-0.1157603 0.01485121 0.7033311 0 0 128 63
-0.1217219 0.02149652 0.7054826 0 0 128 63
-0.1180989 0.02049496 0.7046257 0 0 128 63
-0.1156996 0.01810044 0.70358 0 0 128 63
-0.1264742 0.02692546 0.7073656 0 0 128 63
-0.1226134 0.02595391 0.7053556 0 0 128 63
-0.1176903 0.02548688 0.7043894 0 0 128 63
-0.1150452 0.02666155 0.7030911 0 0 128 63
-0.1263405 0.03098511 0.707743 0 0 128 63
-0.1218705 0.03090435 0.7061338 0 0 128 63
-0.1174181 0.03046419 0.7039098 0 0 128 63
-0.1142933 0.03046683 0.7023802 0 0 128 63
-0.1301943 0.03765123 0.7099016 0 0 128 63
-0.1267083 0.03633579 0.7080977 0 0 128 63
-0.1211822 0.03592505 0.7063965 0 0 128 63
-0.1172954 0.03555967 0.7046152 0 0 128 63
-0.1334043 0.04425038 0.7121009 0 0 128 63
-0.1288065 0.04202654 0.7106248 0 0 128 63
-0.1267613 0.04114841 0.7093318 0 0 128 63
-0.1210316 0.03948894 0.7059731 0 0 128 63
-0.1164351 0.03907535 0.704004 0 0 128 63
-0.1333 0.0473428 0.7123635 0 0 128 63
-0.1296024 0.0464996 0.7112802 0 0 128 63
-0.136898 0.05253954 0.7144899 0 0 128 63
-0.1339934 0.05220254 0.7124768 0 0 128 63
-0.1306264 0.05035564 0.7101492 0 0 128 63
-0.1369878 0.05784266 0.7145304 0 0 128 63
-0.1340978 0.05689583 0.71253 0 0 128 63
-0.1398188 0.06076224 0.7164819 0 0 128 63
-0.1369824 0.06187266 0.7145101 0 0 128 63
-0.1346643 0.0616037 0.7129035 0 0 128 63
-0.1358029 0.07226428 0.7136495 0 0 128 63
-0.1342306 0.0723162 0.7125588 0 0 128 63
-0.1340784 0.07603376 0.7136549 0 0 128 63
-0.1543334 0.08685098 0.7264414 0 0 128 63
-0.1518725 0.08496971 0.7247424 0 0 128 63
-0.1475745 0.08402467 0.7217654 0 0 128 63
-0.1433971 0.08456058 0.7195421 0 0 128 63
-0.1395263 0.08310723 0.7171435 0 0 128 63
-0.1357914 0.08301062 0.714358 0 0 128 63
-0.1254666 0.0824355 0.7088729 0 0 128 63
-0.1511667 0.08875609 0.7250486 0 0 128 63
-0.1467769 0.08928347 0.723182 0 0 128 63
-0.1426842 0.08837917 0.7205193 0 0 128 63
-0.1382504 0.08700116 0.7189373 0 0 128 63
-0.1340243 0.08721385 0.7160055 0 0 128 63
-0.1245327 0.08561821 0.7078066 0 0 128 63
-0.1234807 0.08784468 0.706865 0 0 128 63
-0.1916305 0.1005185 0.7522527 0 0 128 63
-0.1874925 0.1003898 0.7493833 0 0 128 63
-0.1845818 0.1004036 0.7473645 0 0 128 63
-0.1626606 0.0975087 0.732173 0 0 128 63
-0.159447 0.09575997 0.7299514 0 0 128 63
-0.1553811 0.0949051 0.7274392 0 0 128 63
-0.1502603 0.09451225 0.7251062 0 0 128 63
-0.1455584 0.0940414 0.7235344 0 0 128 63
-0.1431063 0.09258612 0.7222822 0 0 128 63
-0.1220503 0.08944006 0.7076918 0 0 128 63
-0.189852 0.1045089 0.7528282 0 0 128 63
-0.1874069 0.1035758 0.7501959 0 0 128 63
-0.1839203 0.1036578 0.7468924 0 0 128 63
-0.1668148 0.1012045 0.735039 0 0 128 63
-0.1625612 0.1006984 0.732091 0 0 128 63
-0.1588012 0.1004732 0.7299709 0 0 128 63
-0.1544897 0.0998457 0.727824 0 0 128 63
-0.1499199 0.09945086 0.7247484 0 0 128 63
-0.1452056 0.09912303 0.7235594 0 0 128 63
-0.1884425 0.1084224 0.7524432 0 0 128 63
-0.1860692 0.1088752 0.7507952 0 0 128 63
-0.1829687 0.1082953 0.7474303 0 0 128 63
-0.179426 0.1079977 0.7437575 0 0 128 63
-0.1751726 0.1076276 0.7408091 0 0 128 63
-0.1706292 0.1073788 0.7376592 0 0 128 63
-0.1658632 0.1068171 0.7354792 0 0 128 63
-0.1617605 0.1059164 0.7331368 0 0 128 63
-0.1573577 0.1055439 0.7308961 0 0 128 63
-0.1538559 0.1048692 0.7268475 0 0 128 63
-0.1492488 0.1045649 0.725048 0 0 128 63
-0.1856882 0.1138609 0.7505104 0 0 128 63
-0.1819243 0.1135715 0.7479011 0 0 128 63
-0.1786749 0.112513 0.7434394 0 0 128 63
-0.1748234 0.11216 0.7405484 0 0 128 63
-0.1707188 0.1116838 0.7377036 0 0 128 63
-0.1658463 0.1112285 0.7349346 0 0 128 63
-0.1610888 0.1109956 0.7334614 0 0 128 63
-0.1569076 0.1105499 0.7307662 0 0 128 63
-0.1527219 0.1101038 0.7280679 0 0 128 63
-0.1495697 0.1093033 0.7260879 0 0 128 63
-0.1846557 0.1184709 0.7497755 0 0 128 63
-0.1814343 0.1182967 0.7472175 0 0 128 63
-0.1779801 0.1176902 0.7430894 0 0 128 63
-0.1744416 0.117154 0.7402631 0 0 128 63
-0.1703371 0.1166778 0.7374184 0 0 128 63
-0.1654073 0.1162434 0.7347616 0 0 128 63
-0.1606643 0.1160183 0.7332478 0 0 128 63
-0.1565642 0.1156537 0.73071 0 0 128 63
-0.1526694 0.1137471 0.7282194 0 0 128 63
-0.1837246 0.1237096 0.7491084 0 0 128 63
-0.1818713 0.1232388 0.7464727 0 0 128 63
-0.1781397 0.1225879 0.7428056 0 0 128 63
-0.1740624 0.1221148 0.7399797 0 0 128 63
-0.1699578 0.1216386 0.737135 0 0 128 63
-0.1644359 0.1214716 0.7357398 0 0 128 63
-0.1601576 0.1210542 0.73318 0 0 128 63
-0.1557736 0.1207035 0.7309524 0 0 128 63
-0.1810966 0.1280707 0.7453554 0 0 128 63
-0.1773004 0.1273965 0.7423909 0 0 128 63
-0.1735415 0.127166 0.7400033 0 0 128 63
-0.1695761 0.1266326 0.7368498 0 0 128 63
-0.1640548 0.1264573 0.735455 0 0 128 63
-0.159706 0.1260796 0.733049 0 0 128 63
-0.1566368 0.1261504 0.7315286 0 0 128 63
-0.1807966 0.1326446 0.744607 0 0 128 63
-0.1773788 0.1325426 0.742237 0 0 128 63
-0.1733015 0.1320696 0.7394112 0 0 128 63
-0.1691969 0.1315933 0.7365664 0 0 128 63
-0.1638887 0.1313662 0.7347113 0 0 128 63
-0.1593572 0.1310567 0.732719 0 0 128 63
-0.1561966 0.1308291 0.7312041 0 0 128 63
-0.1764627 0.1367515 0.7415844 0 0 128 63
-0.1728495 0.1371005 0.7392798 0 0 128 63
-0.1686572 0.1366704 0.7366275 0 0 128 63
-0.1633954 0.1364065 0.7346526 0 0 128 63
-0.1595427 0.1360803 0.7331555 0 0 128 63
-0.155981 0.1336496 0.731043 0 0 128 63
-0.1712501 0.1419609 0.7391648 0 0 128 63
-0.1673365 0.1417632 0.7374249 0 0 128 63
-0.1626802 0.1415227 0.7350485 0 0 128 63
-0.1595241 0.1412917 0.7334689 0 0 128 63
-0.1662505 0.1457134 0.7371017 0 0 128 63
-0.162749 0.1453818 0.7356889 0 0 128 63
-0.1593034 0.1441786 0.733304 0 0 128 63
-0.1120018 0.01161716 0.7034759 0 0 128 63
-0.1090009 0.01124472 0.7026131 0 0 128 63
-0.1121927 0.01523483 0.7040499 0 0 128 63
-0.1085005 0.01469505 0.7022519 0 0 128 63
-0.1044841 0.01486375 0.7014939 0 0 128 63
-0.1123458 0.0202776 0.7043279 0 0 128 63
-0.1073672 0.0197814 0.7032706 0 0 128 63
-0.1043426 0.01814687 0.7013012 0 0 128 63
-0.11189 0.02502699 0.7041178 0 0 128 63
-0.107321 0.02436557 0.7034224 0 0 128 63
-0.1102067 0.02963343 0.7044387 0 0 128 63
-0.1143873 0.03551831 0.705438 0 0 128 63
-0.1116663 0.03516467 0.7052329 0 0 128 63
-0.1210041 0.05377382 0.7107635 0 0 128 63
-0.1180178 0.05342732 0.7086937 0 0 128 63
-0.1143612 0.05135134 0.7071398 0 0 128 63
-0.1197365 0.05691192 0.712001 0 0 128 63
-0.1175335 0.05511702 0.7107849 0 0 128 63
-0.1189444 0.07553425 0.7116796 0 0 128 63
-0.1223898 0.0820803 0.7116084 0 0 128 63
-0.1193653 0.08201455 0.7111337 0 0 128 63
-0.1390904 0.08993895 0.7223475 0 0 128 63
-0.1358864 0.08917287 0.7203314 0 0 128 63
-0.1330677 0.08865751 0.7183785 0 0 128 63
-0.1193046 0.08572474 0.7108059 0 0 128 63
-0.1442955 0.09667944 0.7255241 0 0 128 63
-0.1399787 0.09380897 0.7230953 0 0 128 63
-0.1346638 0.09315151 0.7214954 0 0 128 63
-0.1315067 0.09261013 0.7182938 0 0 128 63
-0.1428152 0.1009266 0.7244801 0 0 128 63
-0.1394901 0.09865479 0.7231568 0 0 128 63
-0.1342361 0.09819198 0.7212797 0 0 128 63
-0.1299939 0.09824149 0.7192497 0 0 128 63
-0.1268767 0.09918542 0.7170841 0 0 128 63
-0.142895 0.1039057 0.725233 0 0 128 63
-0.1380464 0.1036669 0.7237306 0 0 128 63
-0.1336669 0.1032235 0.7217767 0 0 128 63
-0.1259412 0.1009851 0.7164279 0 0 128 63
-0.1460176 0.1105957 0.7276756 0 0 128 63
-0.1419657 0.1091222 0.7259871 0 0 128 63
-0.1374067 0.1087951 0.7239421 0 0 128 63
-0.1346953 0.108127 0.7224699 0 0 128 63
-0.1535337 0.1151258 0.7318556 0 0 128 63
-0.1497652 0.1152515 0.7303063 0 0 128 63
-0.1455416 0.11468 0.7288837 0 0 128 63
-0.1416201 0.1140973 0.7262745 0 0 128 63
-0.1370741 0.1137954 0.7235555 0 0 128 63
-0.134469 0.1143275 0.7222875 0 0 128 63
-0.1497336 0.1200106 0.7305691 0 0 128 63
-0.144749 0.1198639 0.7293945 0 0 128 63
-0.1417899 0.1195205 0.7273436 0 0 128 63
-0.1536485 0.1250388 0.7318947 0 0 128 63
-0.1495562 0.1249379 0.7298681 0 0 128 63
-0.1443654 0.1248827 0.7291078 0 0 128 63
-0.1414063 0.1245394 0.727057 0 0 128 63
-0.1529983 0.1302287 0.7314224 0 0 128 63
-0.1490197 0.1300124 0.7298807 0 0 128 63
-0.1442378 0.1291444 0.7284608 0 0 128 63
-0.141219 0.1286085 0.7269104 0 0 128 63
-0.1564922 0.1361745 0.7338212 0 0 128 63
-0.1528834 0.1355518 0.7317772 0 0 128 63
-0.1481543 0.1352058 0.7310295 0 0 128 63
-0.1441389 0.1337404 0.7289143 0 0 128 63
-0.1414695 0.1318112 0.727071 0 0 128 63
-0.1562146 0.1409189 0.7336091 0 0 128 63
-0.1524408 0.140491 0.7320077 0 0 128 63
-0.148347 0.1398047 0.7308344 0 0 128 63
-0.1602838 0.1471368 0.7366493 0 0 128 63
-0.1561432 0.146034 0.7342024 0 0 128 63
-0.1519869 0.1455468 0.731875 0 0 128 63
-0.1483547 0.144387 0.7307516 0 0 128 63
-0.1627969 0.1494431 0.7381393 0 0 128 63
-0.159739 0.1508944 0.7369591 0 0 128 63
-0.1556984 0.1506756 0.7349898 0 0 128 63
-0.1510291 0.1500766 0.7333217 0 0 128 63
-0.1544249 0.1551704 0.7352965 0 0 128 63
-0.1513442 0.1543487 0.7338271 0 0 128 63
-0.1035876 0.02180139 0.7036833 0 0 128 63
-0.1006616 0.01981094 0.7030008 0 0 128 63
-0.09750912 0.01849256 0.7031322 0 0 128 63
-0.1036858 0.02528534 0.7047513 0 0 128 63
-0.1001776 0.02366768 0.7039881 0 0 128 63
-0.1075645 0.03240632 0.706398 0 0 128 63
-0.1051467 0.02890424 0.7063581 0 0 128 63
-0.1069595 0.03574144 0.7079118 0 0 128 63
-0.1048578 0.03250161 0.7081713 0 0 128 63
-0.1102019 0.04009009 0.7090068 0 0 128 63
-0.1068806 0.03994759 0.7090027 0 0 128 63
-0.1040278 0.03930993 0.7075678 0 0 128 63
-0.1062905 0.04453541 0.7091156 0 0 128 63
-0.1039218 0.04474599 0.707472 0 0 128 63
-0.1047858 0.04856217 0.7080555 0 0 128 63
-0.1143388 0.05675043 0.7132566 0 0 128 63
-0.1108591 0.05395106 0.7110286 0 0 128 63
-0.1186796 0.06147531 0.7149003 0 0 128 63
-0.1146114 0.06089057 0.7142109 0 0 128 63
-0.1208682 0.06623701 0.7175142 0 0 128 63
-0.1181752 0.06654776 0.7148339 0 0 128 63
-0.113392 0.0663991 0.7137077 0 0 128 63
-0.1208417 0.07047264 0.7166671 0 0 128 63
-0.1181588 0.07147343 0.7138897 0 0 128 63
-0.1133603 0.07138531 0.7125396 0 0 128 63
-0.1101386 0.07248317 0.7116698 0 0 128 63
-0.1207324 0.07827428 0.7153423 0 0 128 63
-0.1177298 0.07867914 0.7132583 0 0 128 63
-0.1136192 0.07584746 0.7113926 0 0 128 63
-0.1169662 0.08074981 0.7127202 0 0 128 63
-0.1122525 0.08087277 0.7122901 0 0 128 63
-0.1150623 0.08708259 0.7129964 0 0 128 63
-0.1116349 0.08503485 0.712656 0 0 128 63
-0.1150999 0.09132306 0.7136136 0 0 128 63
-0.11184 0.09018061 0.7127771 0 0 128 63
-0.1282695 0.09737695 0.7204913 0 0 128 63
-0.1306671 0.1048862 0.7221233 0 0 128 63
-0.1269801 0.103572 0.7221162 0 0 128 63
-0.122495 0.1036984 0.7193002 0 0 128 63
-0.1310499 0.1082052 0.7234402 0 0 128 63
-0.126237 0.1077944 0.7226899 0 0 128 63
-0.1223982 0.1069071 0.7200312 0 0 128 63
-0.1388291 0.1152737 0.7277415 0 0 128 63
-0.1332159 0.1126833 0.7250761 0 0 128 63
-0.1305334 0.1131851 0.7238221 0 0 128 63
-0.1261214 0.1134521 0.7223839 0 0 128 63
-0.1225053 0.1147933 0.7200731 0 0 128 63
-0.1385526 0.1188906 0.7275349 0 0 128 63
-0.1343112 0.1187454 0.7264194 0 0 128 63
-0.1295576 0.1184974 0.7246786 0 0 128 63
-0.1260695 0.118148 0.7225313 0 0 128 63
-0.1380636 0.1239648 0.7274793 0 0 128 63
-0.1340352 0.1233093 0.7268177 0 0 128 63
-0.1292367 0.1213993 0.7247146 0 0 128 63
-0.1262776 0.121056 0.7226637 0 0 128 63
-0.1378377 0.1292918 0.727518 0 0 128 63
-0.1334648 0.1283355 0.727348 0 0 128 63
-0.144963 0.1370758 0.7319062 0 0 128 63
-0.1410109 0.1354319 0.7295198 0 0 128 63
-0.1376386 0.133882 0.7281781 0 0 128 63
-0.1343788 0.1322398 0.7282364 0 0 128 63
-0.1446126 0.1406867 0.7328654 0 0 128 63
-0.141023 0.1399257 0.7310888 0 0 128 63
-0.1362792 0.1390185 0.7295266 0 0 128 63
-0.1440135 0.1456257 0.734255 0 0 128 63
-0.1394936 0.143797 0.7317363 0 0 128 63
-0.136589 0.1427402 0.7297262 0 0 128 63
-0.1477684 0.150859 0.7337953 0 0 128 63
-0.1450901 0.1496801 0.7330076 0 0 128 63
-0.1479153 0.1552129 0.73464 0 0 128 63
-0.1440544 0.1552229 0.7348526 0 0 128 63
-0.1516287 0.1589396 0.7364395 0 0 128 63
-0.1478911 0.1599214 0.7359028 0 0 128 63
-0.1443915 0.158911 0.7350712 0 0 128 63
-0.1458282 0.1638304 0.7355607 0 0 128 63
-0.1440035 0.1639879 0.7347813 0 0 128 63
-0.09492898 0.02079811 0.7047407 0 0 128 63
-0.09804958 0.02567418 0.7059114 0 0 128 63
-0.09351721 0.02417947 0.70533 0 0 128 63
-0.1010601 0.02987976 0.7083878 0 0 128 63
-0.09751427 0.02907604 0.7068785 0 0 128 63
-0.09373441 0.02842775 0.706254 0 0 128 63
-0.1010621 0.03478356 0.7095863 0 0 128 63
-0.09681317 0.03369945 0.7078607 0 0 128 63
-0.09391782 0.03253385 0.7066687 0 0 128 63
-0.09952116 0.03988196 0.7097641 0 0 128 63
-0.09704414 0.03806877 0.7088142 0 0 128 63
-0.1050501 0.04531719 0.710686 0 0 128 63
-0.09998015 0.04364603 0.7096107 0 0 128 63
-0.1075986 0.05157177 0.712428 0 0 128 63
-0.1045674 0.05076719 0.7110244 0 0 128 63
-0.1021327 0.05008002 0.7094544 0 0 128 63
-0.1107028 0.05775692 0.7145554 0 0 128 63
-0.1070729 0.0555993 0.714133 0 0 128 63
-0.1031988 0.05467928 0.7123386 0 0 128 63
-0.1012561 0.05305043 0.710457 0 0 128 63
-0.1109694 0.06145001 0.7150294 0 0 128 63
-0.1066472 0.06013206 0.7150189 0 0 128 63
-0.1101906 0.06553777 0.7141683 0 0 128 63
-0.1067845 0.06553237 0.7146457 0 0 128 63
-0.1096747 0.06985669 0.7137927 0 0 128 63
-0.1062486 0.07036076 0.7148918 0 0 128 63
-0.1083355 0.07622538 0.7149675 0 0 128 63
-0.1064006 0.07440554 0.7151543 0 0 128 63
-0.1084501 0.08124556 0.7136267 0 0 128 63
-0.1058451 0.08167252 0.7147392 0 0 128 63
-0.1096346 0.0863101 0.7136974 0 0 128 63
-0.1054324 0.08510573 0.7141955 0 0 128 63
-0.1124222 0.09357582 0.715601 0 0 128 63
-0.1091515 0.09094436 0.7138301 0 0 128 63
-0.1051348 0.08981258 0.713402 0 0 128 63
-0.1128826 0.09677862 0.7171242 0 0 128 63
-0.1084221 0.09566104 0.7152521 0 0 128 63
-0.115889 0.1028406 0.7201579 0 0 128 63
-0.1114093 0.1016134 0.7185165 0 0 128 63
-0.1088832 0.1007804 0.7167678 0 0 128 63
-0.1231749 0.1094863 0.7229932 0 0 128 63
-0.1202866 0.1083979 0.7209944 0 0 128 63
-0.1158078 0.1068729 0.7204045 0 0 128 63
-0.1116707 0.1053471 0.7186825 0 0 128 63
-0.1089241 0.1040241 0.7167829 0 0 128 63
-0.123625 0.1116978 0.7232962 0 0 128 63
-0.1201739 0.1122463 0.7219823 0 0 128 63
-0.1152563 0.1119617 0.7208102 0 0 128 63
-0.1232463 0.1182722 0.7230066 0 0 128 63
-0.1199137 0.117066 0.7215117 0 0 128 63
-0.1158139 0.114931 0.7202997 0 0 128 63
-0.1304095 0.1249886 0.7279471 0 0 128 63
-0.1281211 0.1239698 0.7263641 0 0 128 63
-0.123551 0.1230757 0.723685 0 0 128 63
-0.1190258 0.1215767 0.7233113 0 0 128 63
-0.130917 0.1291484 0.728282 0 0 128 63
-0.126967 0.1279158 0.7265774 0 0 128 63
-0.1221389 0.1271216 0.7256505 0 0 128 63
-0.1307643 0.1342363 0.7298148 0 0 128 63
-0.1259044 0.1323655 0.7279024 0 0 128 63
-0.1305501 0.1384611 0.7302021 0 0 128 63
-0.1269533 0.1370486 0.7291515 0 0 128 63
-0.1408598 0.1459357 0.7351089 0 0 128 63
-0.1391006 0.1457316 0.7338898 0 0 128 63
-0.1337222 0.1445664 0.73116 0 0 128 63
-0.1305065 0.1425272 0.7306199 0 0 128 63
-0.1410531 0.149885 0.7352268 0 0 128 63
-0.1377539 0.149478 0.7341574 0 0 128 63
-0.1337374 0.1482213 0.7321882 0 0 128 63
-0.1405239 0.1545862 0.7358837 0 0 128 63
-0.1370898 0.153785 0.7357075 0 0 128 63
-0.1406372 0.1599593 0.7362246 0 0 128 63
-0.1372875 0.1595138 0.7362267 0 0 128 63
-0.1408077 0.1647274 0.7366553 0 0 128 63
-0.1402198 0.1686669 0.7382228 0 0 128 63
-0.08980772 0.02496495 0.706283 0 0 128 63
-0.08738559 0.02452424 0.7056193 0 0 128 63
-0.09074527 0.02877366 0.7072654 0 0 128 63
-0.08620879 0.02759653 0.706697 0 0 128 63
-0.09354153 0.03610368 0.7094355 0 0 128 63
-0.09064561 0.03374827 0.7085666 0 0 128 63
-0.09322023 0.03967293 0.7103596 0 0 128 63
-0.08912382 0.03898365 0.7094022 0 0 128 63
-0.09714952 0.04518318 0.711292 0 0 128 63
-0.09369653 0.04389367 0.7115103 0 0 128 63
-0.09689575 0.04955397 0.7128221 0 0 128 63
-0.09325674 0.047116 0.7122352 0 0 128 63
-0.1001212 0.056341 0.7133072 0 0 128 63
-0.09654543 0.05466855 0.7124567 0 0 128 63
-0.09250489 0.05462288 0.711509 0 0 128 63
-0.103902 0.06195185 0.7159064 0 0 128 63
-0.1004721 0.06023862 0.7149038 0 0 128 63
-0.09569594 0.0598505 0.7129619 0 0 128 63
-0.09264493 0.05923908 0.7112396 0 0 128 63
-0.1036243 0.06558536 0.7156988 0 0 128 63
-0.09975374 0.06541044 0.7160576 0 0 128 63
-0.1034467 0.0711487 0.7155528 0 0 128 63
-0.09936935 0.06980179 0.7158947 0 0 128 63
-0.1035303 0.07620945 0.7165028 0 0 128 63
-0.09913322 0.07500268 0.7154475 0 0 128 63
-0.1033479 0.08018815 0.7160558 0 0 128 63
-0.09909269 0.08003816 0.715387 0 0 128 63
-0.1024944 0.08548854 0.7151813 0 0 128 63
-0.09880927 0.08480288 0.7152554 0 0 128 63
-0.1023597 0.09080382 0.715124 0 0 128 63
-0.09839866 0.08950061 0.7152799 0 0 128 63
-0.1052136 0.09770672 0.7166693 0 0 128 63
-0.1023208 0.09535781 0.7156463 0 0 128 63
-0.0980975 0.09501399 0.715396 0 0 128 63
-0.1053557 0.1014362 0.717361 0 0 128 63
-0.1010825 0.1003801 0.7165923 0 0 128 63
-0.09894776 0.09782173 0.7147572 0 0 128 63
-0.1093713 0.107027 0.7195147 0 0 128 63
-0.105315 0.1059201 0.7180337 0 0 128 63
-0.1012328 0.1047513 0.7175305 0 0 128 63
-0.1120828 0.1136688 0.721368 0 0 128 63
-0.1092 0.1114873 0.7200732 0 0 128 63
-0.104759 0.1103468 0.7187362 0 0 128 63
-0.1154013 0.1177697 0.7236527 0 0 128 63
-0.1124234 0.117326 0.7226323 0 0 128 63
-0.107863 0.116624 0.7208632 0 0 128 63
-0.1044936 0.1150053 0.71975 0 0 128 63
-0.1159436 0.1224293 0.7243575 0 0 128 63
-0.1117389 0.121501 0.7235313 0 0 128 63
-0.1080031 0.1210231 0.7217029 0 0 128 63
-0.1198114 0.1288267 0.7266659 0 0 128 63
-0.1154678 0.1273492 0.7258328 0 0 128 63
-0.1116691 0.1258809 0.7246819 0 0 128 63
-0.1238295 0.134214 0.7294306 0 0 128 63
-0.1198009 0.1325628 0.7279955 0 0 128 63
-0.1150301 0.1322349 0.7265441 0 0 128 63
-0.1117453 0.1313633 0.7247123 0 0 128 63
-0.1269533 0.1405018 0.7315713 0 0 128 63
-0.1235647 0.1381642 0.7303542 0 0 128 63
-0.1191361 0.1370619 0.7292932 0 0 128 63
-0.1272007 0.1437443 0.7317296 0 0 128 63
-0.123143 0.1430192 0.7310205 0 0 128 63
-0.119503 0.1411012 0.7300526 0 0 128 63
-0.1333772 0.1514911 0.7359815 0 0 128 63
-0.1310755 0.1502867 0.73439 0 0 128 63
-0.126395 0.1481289 0.7327753 0 0 128 63
-0.1223302 0.1476985 0.7314997 0 0 128 63
-0.1339328 0.1550204 0.7363524 0 0 128 63
-0.1296678 0.154122 0.7361638 0 0 128 63
-0.1258641 0.1532459 0.7341102 0 0 128 63
-0.1334257 0.1592779 0.7376058 0 0 128 63
-0.1300744 0.1588873 0.7365813 0 0 128 63
-0.1267547 0.1574592 0.7350149 0 0 128 63
-0.1370859 0.1666847 0.7384913 0 0 128 63
-0.1334977 0.1643904 0.7381654 0 0 128 63
-0.1300199 0.162257 0.7372598 0 0 128 63
-0.1371655 0.1698536 0.7393449 0 0 128 63
-0.1334935 0.1694043 0.7390311 0 0 128 63
-0.1334498 0.1729993 0.7395945 0 0 128 63
-0.08679658 0.03033609 0.7102575 0 0 128 63
-0.08268884 0.02921512 0.7098472 0 0 128 63
-0.08208343 0.02828278 0.7069972 0 0 128 63
-0.08635658 0.03376918 0.7111553 0 0 128 63
-0.0824196 0.0332402 0.7112666 0 0 128 63
-0.0785785 0.03136788 0.7094216 0 0 128 63
-0.08504167 0.03867672 0.7126572 0 0 128 63
-0.08223876 0.03747694 0.7119351 0 0 128 63
-0.08990169 0.04435495 0.7123536 0 0 128 63
-0.08587441 0.04374756 0.7126054 0 0 128 63
-0.09021473 0.04973063 0.7135918 0 0 128 63
-0.08603826 0.04918049 0.7128996 0 0 128 63
-0.08851817 0.0541602 0.7128142 0 0 128 63
-0.08496985 0.05358153 0.7137632 0 0 128 63
-0.08857134 0.05884285 0.7121828 0 0 128 63
-0.08505595 0.05893444 0.7138009 0 0 128 63
-0.09626529 0.06628416 0.716677 0 0 128 63
-0.09389377 0.06527252 0.7150365 0 0 128 63
-0.0886291 0.06436961 0.7136608 0 0 128 63
-0.08467802 0.06387864 0.7135185 0 0 128 63
-0.09592667 0.07071404 0.716424 0 0 128 63
-0.09238008 0.07000583 0.7161577 0 0 128 63
-0.08788595 0.0691684 0.7140179 0 0 128 63
-0.08481732 0.06842838 0.7123795 0 0 128 63
-0.0955703 0.0753762 0.7161577 0 0 128 63
-0.09092399 0.07442433 0.7169958 0 0 128 63
-0.08693895 0.07371536 0.7150462 0 0 128 63
-0.09547633 0.08065464 0.7160709 0 0 128 63
-0.09080786 0.07947056 0.7166629 0 0 128 63
-0.09513962 0.08505964 0.7158193 0 0 128 63
-0.09030101 0.08469835 0.716116 0 0 128 63
-0.0949347 0.09049386 0.7162634 0 0 128 63
-0.08978918 0.08908286 0.716473 0 0 128 63
-0.09418917 0.09517073 0.7163357 0 0 128 63
-0.0904851 0.09409577 0.717422 0 0 128 63
-0.0972819 0.1004983 0.7172418 0 0 128 63
-0.09406337 0.09962364 0.717447 0 0 128 63
-0.09008813 0.09928885 0.7171254 0 0 128 63
-0.0977653 0.1056402 0.718441 0 0 128 63
-0.09370887 0.1041727 0.718643 0 0 128 63
-0.1012684 0.1120585 0.7199591 0 0 128 63
-0.09763885 0.1105348 0.7201254 0 0 128 63
-0.09349358 0.1083712 0.71945 0 0 128 63
-0.1016975 0.1158386 0.721154 0 0 128 63
-0.09801987 0.1140049 0.7201322 0 0 128 63
-0.1040313 0.1219141 0.723052 0 0 128 63
-0.1008058 0.1204013 0.7226465 0 0 128 63
-0.1079191 0.1271623 0.7264569 0 0 128 63
-0.1044754 0.1261951 0.7247806 0 0 128 63
-0.1008194 0.1248382 0.7244633 0 0 128 63
-0.1107958 0.1344938 0.7289088 0 0 128 63
-0.1078221 0.1312819 0.7268596 0 0 128 63
-0.1037304 0.1307723 0.725971 0 0 128 63
-0.1152769 0.1379432 0.7305421 0 0 128 63
-0.111596 0.1376304 0.7299918 0 0 128 63
-0.1084801 0.1369251 0.7297267 0 0 128 63
-0.1194992 0.1446042 0.7324696 0 0 128 63
-0.1153217 0.1425613 0.7320145 0 0 128 63
-0.1114062 0.1421103 0.7317348 0 0 128 63
-0.1182929 0.1487209 0.73405 0 0 128 63
-0.1161322 0.1468575 0.7337762 0 0 128 63
-0.1224258 0.1538319 0.7344614 0 0 128 63
-0.1183779 0.152719 0.7349039 0 0 128 63
-0.1272008 0.1599347 0.7377481 0 0 128 63
-0.1232324 0.1585043 0.7362187 0 0 128 63
-0.1187582 0.1580737 0.7359571 0 0 128 63
-0.1264727 0.1646427 0.7389277 0 0 128 63
-0.1221253 0.1629438 0.7378665 0 0 128 63
-0.1188429 0.1611762 0.7368144 0 0 128 63
-0.1301048 0.1698253 0.7402084 0 0 128 63
-0.1252525 0.1692218 0.7404154 0 0 128 63
-0.1295443 0.1740896 0.7417493 0 0 128 63
-0.1259471 0.1724453 0.7416952 0 0 128 63
-0.1286728 0.1772809 0.7435658 0 0 128 63
-0.07934245 0.03011998 0.7111735 0 0 128 63
-0.07741615 0.02947414 0.7106516 0 0 128 63
-0.07840627 0.03315042 0.7121345 0 0 128 63
-0.07514399 0.03302807 0.7123063 0 0 128 63
-0.0793924 0.03877478 0.7133362 0 0 128 63
-0.07561687 0.03609196 0.713433 0 0 128 63
-0.08312538 0.04542264 0.7137343 0 0 128 63
-0.08047244 0.04362685 0.7143358 0 0 128 63
-0.08321199 0.04806899 0.7137836 0 0 128 63
-0.07925275 0.04818889 0.7159051 0 0 128 63
-0.08180302 0.05429633 0.7152148 0 0 128 63
-0.07918859 0.05307745 0.7158405 0 0 128 63
-0.08090213 0.05841369 0.7163985 0 0 128 63
-0.07896033 0.05606388 0.7156699 0 0 128 63
-0.08242682 0.0635394 0.7135233 0 0 128 63
-0.07839721 0.06343043 0.7152492 0 0 128 63
-0.0860275 0.07116833 0.7156414 0 0 128 63
-0.08148825 0.06856567 0.7145903 0 0 128 63
-0.08467424 0.07452946 0.7161496 0 0 128 63
-0.08100182 0.07390123 0.7170126 0 0 128 63
-0.08841845 0.08038408 0.7172619 0 0 128 63
-0.08441678 0.07877548 0.7169272 0 0 128 63
-0.0810518 0.07729656 0.7170334 0 0 128 63
-0.08505535 0.08352433 0.7169448 0 0 128 63
-0.08829778 0.09006164 0.7171385 0 0 128 63
-0.08554 0.0891352 0.716041 0 0 128 63
-0.08623394 0.09416506 0.7193413 0 0 128 63
-0.09104937 0.1015789 0.7189996 0 0 128 63
-0.08777842 0.09922936 0.7191747 0 0 128 63
-0.09035203 0.1051926 0.7203267 0 0 128 63
-0.08865568 0.1039509 0.7197637 0 0 128 63
-0.0934974 0.1117747 0.7218726 0 0 128 63
-0.09080833 0.1100058 0.7208841 0 0 128 63
-0.09719744 0.1172564 0.7231992 0 0 128 63
-0.09353071 0.1162581 0.7234421 0 0 128 63
-0.09043175 0.1135434 0.7217674 0 0 128 63
-0.09625036 0.1209512 0.7249612 0 0 128 63
-0.09371537 0.1202592 0.7250314 0 0 128 63
-0.09715679 0.1258668 0.7259754 0 0 128 63
-0.09345856 0.1244822 0.7254445 0 0 128 63
-0.1006178 0.1317927 0.7273374 0 0 128 63
-0.09724802 0.131025 0.7276401 0 0 128 63
-0.1051093 0.1366806 0.7303107 0 0 128 63
-0.1005875 0.1359319 0.729936 0 0 128 63
-0.1078057 0.1428301 0.7328856 0 0 128 63
-0.1035187 0.1412467 0.7318119 0 0 128 63
-0.1009157 0.1403116 0.7305514 0 0 128 63
-0.1125501 0.1475909 0.7347658 0 0 128 63
-0.1073271 0.1473949 0.7340328 0 0 128 63
-0.1031943 0.1455976 0.7321101 0 0 128 63
-0.1153027 0.153604 0.735607 0 0 128 63
-0.1112521 0.1526223 0.7371288 0 0 128 63
-0.1086829 0.1510049 0.7358945 0 0 128 63
-0.1149599 0.1576908 0.7369753 0 0 128 63
-0.1114163 0.1557409 0.7377708 0 0 128 63
-0.1193387 0.164517 0.7383614 0 0 128 63
-0.1157864 0.162582 0.7380354 0 0 128 63
-0.1115734 0.161785 0.737855 0 0 128 63
-0.1198081 0.1679078 0.740064 0 0 128 63
-0.1155778 0.1667401 0.7387864 0 0 128 63
-0.1259654 0.1754423 0.743724 0 0 128 63
-0.1226148 0.1744767 0.7430267 0 0 128 63
-0.1193431 0.1720137 0.7423903 0 0 128 63
-0.125108 0.1786672 0.7453471 0 0 128 63
-0.1224917 0.1783379 0.744548 0 0 128 63
-0.07226029 0.03378268 0.7135485 0 0 128 63
-0.07021528 0.03369986 0.713956 0 0 128 63
-0.07554266 0.03943613 0.7158018 0 0 128 63
-0.07269636 0.03775905 0.7154574 0 0 128 63
-0.06979623 0.03599589 0.7142645 0 0 128 63
-0.07571891 0.0437973 0.7165147 0 0 128 63
-0.0723139 0.04201446 0.7168986 0 0 128 63
-0.07538927 0.04863987 0.717686 0 0 128 63
-0.07530439 0.05293874 0.7182585 0 0 128 63
-0.07820797 0.05989949 0.7180532 0 0 128 63
-0.07536051 0.05852766 0.7183353 0 0 128 63
-0.07491291 0.06376249 0.7181048 0 0 128 63
-0.07707343 0.06859763 0.7173523 0 0 128 63
-0.07399446 0.06862274 0.717955 0 0 128 63
-0.07746834 0.07358193 0.7179099 0 0 128 63
-0.07418889 0.07199234 0.7177717 0 0 128 63
-0.07763332 0.07921068 0.7190662 0 0 128 63
-0.0805319 0.08414847 0.7202957 0 0 128 63
-0.07788062 0.08338499 0.7205896 0 0 128 63
-0.08013204 0.08869418 0.7214195 0 0 128 63
-0.07780671 0.08680844 0.7208286 0 0 128 63
-0.08351803 0.09600008 0.721101 0 0 128 63
-0.08089086 0.0944073 0.7208504 0 0 128 63
-0.08336583 0.09937233 0.7219552 0 0 128 63
-0.08050233 0.09875574 0.7216756 0 0 128 63
-0.08540949 0.1071046 0.7248012 0 0 128 63
