# .PCD v.7 - Point Cloud Data file format
VERSION .7
FIELDS x y z _
SIZE 4 4 4 1
TYPE F F F U
COUNT 1 1 1 4
WIDTH 1266
HEIGHT 1
VIEWPOINT 0 0 0 1 0 0 0
POINTS 1266
DATA ascii
-0.1474 0.03690909 0.6951819 0 0 128 63
-0.1436454 0.03743637 0.6962728 0 0 128 63
-0.1574 0.04274 0.695 0 0 128 63
-0.1521 0.04368334 0.6953334 0 0 128 63
-0.1472625 0.0411375 0.6965 0 0 128 63
-0.14345 0.04055 0.6975 0 0 128 63
-0.1570693 0.0475 0.6950001 0 0 128 63
-0.1530462 0.04763077 0.6966923 0 0 128 63
-0.1608 0.05295 0.695 0 0 128 63
-0.1578583 0.05240833 0.6964167 0 0 128 63
-0.1535429 0.05285715 0.6978571 0 0 128 63
-0.1489 0.0538 0.698 0 0 128 63
-0.1626333 0.05709999 0.697 0 0 128 63
-0.1580125 0.05710625 0.6970626 0 0 128 63
-0.1532308 0.05700769 0.6978462 0 0 128 63
-0.1491333 0.0565 0.6980001 0 0 128 63
-0.1623077 0.06211538 0.6977693 0 0 128 63
-0.1575111 0.06182222 0.6978889 0 0 128 63
-0.1544667 0.06093333 0.6980001 0 0 128 63
-0.1630429 0.06742857 0.6971429 0 0 128 63
-0.1653 0.071 0.697 0 0 128 63
-0.163375 0.071725 0.69725 0 0 128 63
-0.1468 0.02145 0.704 0 0 128 63
-0.1388 0.02345 0.704 0 0 128 63
-0.1321 0.0235 0.704 0 0 128 63
-0.1281 0.0235 0.704 0 0 128 63
-0.12 0.0248 0.704 0 0 128 63
-0.1401 0.02815 0.704 0 0 128 63
-0.1388 0.0275 0.704 0 0 128 63
-0.1459 0.03345 0.70275 0 0 128 63
-0.1414167 0.03306667 0.7038333 0 0 128 63
-0.1417125 0.037225 0.701 0 0 128 63
-0.138575 0.03786667 0.7035834 0 0 128 63
-0.1501 0.044 0.7005 0 0 128 63
-0.1471375 0.0441375 0.70225 0 0 128 63
-0.1424 0.04223334 0.7012222 0 0 128 63
-0.1379364 0.04203637 0.7028182 0 0 128 63
-0.1348 0.04155 0.704 0 0 128 63
-0.15092 0.04772 0.702 0 0 128 63
-0.1490667 0.04673333 0.704 0 0 128 63
-0.1516556 0.0516889 0.7008889 0 0 128 63
-0.1493 0.0529 0.703 0 0 128 63
-0.151325 0.0573 0.7 0 0 128 63
-0.1607 0.064 0.7 0 0 128 63
-0.15698 0.06444 0.7002 0 0 128 63
-0.1528545 0.06298182 0.7014546 0 0 128 63
-0.1616833 0.06783333 0.7005 0 0 128 63
-0.1574917 0.06739999 0.7006668 0 0 128 63
-0.15287 0.06755 0.7022001 0 0 128 63
-0.162 0.07246001 0.7006 0 0 128 63
-0.15765 0.0721375 0.7013751 0 0 128 63
-0.1529643 0.07250001 0.7030715 0 0 128 63
-0.1621091 0.07724547 0.701 0 0 128 63
-0.1580467 0.07748668 0.7026001 0 0 128 63
-0.15445 0.07672501 0.7035 0 0 128 63
-0.16162 0.08196 0.7018 0 0 128 63
-0.15847 0.08239 0.7032 0 0 128 63
-0.1587 0.085 0.703 0 0 128 63
-0.1522 0.0905 0.704 0 0 128 63
-0.16585 0.0189 0.708 0 0 128 63
-0.1622 0.01883334 0.7066666 0 0 128 63
-0.1571 0.0195 0.705 0 0 128 63
-0.1531 0.0195 0.705 0 0 128 63
-0.16585 0.022925 0.7080001 0 0 128 63
-0.1623333 0.0229 0.7072501 0 0 128 63
-0.1574125 0.022875 0.7063749 0 0 128 63
-0.1522 0.02301333 0.7064666 0 0 128 63
-0.1474818 0.02292727 0.7059091 0 0 128 63
-0.1426615 0.02333077 0.7057692 0 0 128 63
-0.1367778 0.02365556 0.7052222 0 0 128 63
-0.13234 0.0243 0.7054 0 0 128 63
-0.12814 0.02458 0.7058 0 0 128 63
-0.1228667 0.0248 0.705 0 0 128 63
-0.16585 0.0263 0.708 0 0 128 63
-0.1620833 0.02718334 0.7080001 0 0 128 63
-0.1576917 0.02763334 0.7075834 0 0 128 63
-0.152225 0.02763334 0.70725 0 0 128 63
-0.1475333 0.02763333 0.7073334 0 0 128 63
-0.1432 0.0275 0.7072 0 0 128 63
-0.1371636 0.02762727 0.7070001 0 0 128 63
-0.1325 0.02777 0.7077001 0 0 128 63
-0.1277818 0.02750909 0.7070909 0 0 128 63
-0.1222333 0.02754167 0.7051667 0 0 128 63
-0.1175333 0.02754445 0.7052222 0 0 128 63
-0.1130909 0.02769091 0.7057273 0 0 128 63
-0.1077 0.0282 0.7072858 0 0 128 63
-0.10288 0.02872 0.7078 0 0 128 63
-0.09766667 0.029 0.7073333 0 0 128 63
-0.1574714 0.03224286 0.7078573 0 0 128 63
-0.1524583 0.03171667 0.7067499 0 0 128 63
-0.1479125 0.0314375 0.70675 0 0 128 63
-0.14312 0.03176 0.7068 0 0 128 63
-0.13735 0.03229375 0.707 0 0 128 63
-0.1321 0.03233125 0.70775 0 0 128 63
-0.1273917 0.03234167 0.7077501 0 0 128 63
-0.1225812 0.0323125 0.7072501 0 0 128 63
-0.11757 0.0315 0.7071 0 0 128 63
-0.1127 0.0314875 0.7075 0 0 128 63
-0.108 0.03167143 0.7080001 0 0 128 63
-0.1031667 0.03152222 0.7080001 0 0 128 63
-0.0971 0.0303 0.708 0 0 128 63
-0.1578 0.0357 0.708 0 0 128 63
-0.135975 0.03715 0.706 0 0 128 63
-0.132075 0.03772499 0.707625 0 0 128 63
-0.1273 0.03734 0.7080001 0 0 128 63
-0.1231714 0.03648572 0.7080001 0 0 128 63
-0.1363 0.0436 0.705 0 0 128 63
-0.1331286 0.04264286 0.7075714 0 0 128 63
-0.1247 0.0411 0.708 0 0 128 63
-0.1478 0.047975 0.707 0 0 128 63
-0.14355 0.0461625 0.707625 0 0 128 63
-0.1372467 0.04701333 0.7071334 0 0 128 63
-0.1335143 0.04688572 0.7075714 0 0 128 63
-0.14898 0.0513 0.7066 0 0 128 63
-0.1369 0.0506 0.708 0 0 128 63
-0.1502 0.0747 0.707 0 0 128 63
-0.15575 0.0799 0.705 0 0 128 63
-0.1517692 0.07782308 0.7057692 0 0 128 63
-0.14782 0.07808001 0.7068 0 0 128 63
-0.15562 0.08256 0.705 0 0 128 63
-0.152275 0.08256666 0.7058333 0 0 128 63
-0.14765 0.08224168 0.7068332 0 0 128 63
-0.145 0.08156667 0.7080001 0 0 128 63
-0.1562889 0.08686667 0.7056667 0 0 128 63
-0.1519 0.08738125 0.7056249 0 0 128 63
-0.1475167 0.08757499 0.70725 0 0 128 63
-0.1515667 0.092575 0.7061666 0 0 128 63
-0.1476455 0.09275454 0.7072727 0 0 128 63
-0.15085 0.0963 0.707 0 0 128 63
-0.14715 0.09661667 0.7076666 0 0 128 63
-0.145 0.09643334 0.7080001 0 0 128 63
-0.175725 0.0186 0.711 0 0 128 63
-0.1724555 0.01826667 0.7101111 0 0 128 63
-0.16918 0.01854 0.71 0 0 128 63
-0.1763429 0.02252857 0.7110001 0 0 128 63
-0.1725 0.02233333 0.7103333 0 0 128 63
-0.16905 0.02233334 0.71 0 0 128 63
-0.1774714 0.02732857 0.7124285 0 0 128 63
-0.1726077 0.02726923 0.7116154 0 0 128 63
-0.1681909 0.02739091 0.7107273 0 0 128 63
-0.1638667 0.02863333 0.71 0 0 128 63
-0.1089 0.0291 0.71 0 0 128 63
-0.1808 0.03331667 0.7136667 0 0 128 63
-0.17775 0.03230001 0.7137499 0 0 128 63
-0.1726625 0.03264375 0.7137499 0 0 128 63
-0.1677167 0.0326 0.7129166 0 0 128 63
-0.1626929 0.03256429 0.7105001 0 0 128 63
-0.1170667 0.03383334 0.7106667 0 0 128 63
-0.11226 0.03424 0.711 0 0 128 63
-0.1079125 0.0328125 0.710375 0 0 128 63
-0.1019571 0.03351429 0.7101429 0 0 128 63
-0.09763335 0.03323333 0.7120833 0 0 128 63
-0.09235999 0.03249334 0.7134665 0 0 128 63
-0.08800001 0.03302222 0.7136667 0 0 128 63
-0.08416001 0.03304 0.7138 0 0 128 63
-0.1814 0.037225 0.714 0 0 128 63
-0.1788 0.0367 0.714 0 0 128 63
-0.172725 0.0374 0.7139999 0 0 128 63
-0.1678889 0.03738889 0.7136666 0 0 128 63
-0.1625833 0.03724167 0.71125 0 0 128 63
-0.1589 0.03785 0.71 0 0 128 63
-0.1273667 0.0399 0.71 0 0 128 63
-0.1223625 0.0387 0.71 0 0 128 63
-0.1179571 0.0376 0.7107143 0 0 128 63
-0.112325 0.03720833 0.7105 0 0 128 63
-0.10742 0.03737 0.711 0 0 128 63
-0.1027636 0.0371091 0.7111818 0 0 128 63
-0.09790002 0.0374 0.7138332 0 0 128 63
-0.0945 0.036 0.714 0 0 128 63
-0.0877 0.036 0.7136667 0 0 128 63
-0.085 0.036 0.714 0 0 128 63
-0.1718889 0.04162223 0.714 0 0 128 63
-0.167875 0.04213334 0.7135834 0 0 128 63
-0.1637833 0.04091667 0.7116667 0 0 128 63
-0.13114 0.04234 0.7104 0 0 128 63
-0.1273636 0.04274546 0.7103636 0 0 128 63
-0.1224556 0.04261111 0.7104445 0 0 128 63
-0.1176786 0.04229286 0.7113572 0 0 128 63
-0.1124563 0.04201875 0.7113751 0 0 128 63
-0.1071875 0.0420625 0.7122501 0 0 128 63
-0.1025417 0.0421 0.7130833 0 0 128 63
-0.0979 0.0421375 0.7138749 0 0 128 63
-0.0945 0.0428 0.714 0 0 128 63
-0.0891 0.0415 0.714 0 0 128 63
-0.1707 0.04895 0.714 0 0 128 63
-0.16878 0.0472 0.714 0 0 128 63
-0.14605 0.0494 0.71 0 0 128 63
-0.1423429 0.04822858 0.7102858 0 0 128 63
-0.14 0.0494 0.71 0 0 128 63
-0.1318889 0.04774445 0.7125555 0 0 128 63
-0.1276375 0.04753125 0.7128749 0 0 128 63
-0.1222733 0.04765334 0.7124667 0 0 128 63
-0.1176308 0.04737693 0.7126923 0 0 128 63
-0.1124938 0.04744375 0.7115001 0 0 128 63
-0.1072438 0.047525 0.712625 0 0 128 63
-0.1025917 0.04756667 0.7135 0 0 128 63
-0.09792501 0.0476 0.7139999 0 0 128 63
-0.1693 0.051 0.714 0 0 128 63
-0.1472334 0.05234445 0.7116666 0 0 128 63
-0.1425 0.05224168 0.7125 0 0 128 63
-0.1372222 0.05255555 0.7105556 0 0 128 63
-0.1330083 0.05224166 0.7125 0 0 128 63
-0.1278333 0.05235834 0.7139167 0 0 128 63
-0.1224091 0.05215455 0.7129999 0 0 128 63
-0.1174462 0.0528923 0.7116154 0 0 128 63
-0.1123125 0.05277499 0.7103751 0 0 128 63
-0.1073429 0.05258571 0.7120001 0 0 128 63
-0.1026444 0.05234444 0.7137778 0 0 128 63
-0.0981091 0.05224546 0.7139999 0 0 128 63
-0.1501 0.055 0.713 0 0 128 63
-0.1487 0.055 0.713 0 0 128 63
-0.14102 0.0567 0.7138 0 0 128 63
-0.1372333 0.05719999 0.7132 0 0 128 63
-0.132475 0.05707499 0.7133333 0 0 128 63
-0.12785 0.057125 0.7139999 0 0 128 63
-0.1222875 0.05708749 0.7134374 0 0 128 63
-0.1173556 0.05766667 0.7123333 0 0 128 63
-0.1125083 0.05762499 0.7116666 0 0 128 63
-0.10715 0.05737143 0.7133572 0 0 128 63
-0.1026667 0.057125 0.7139999 0 0 128 63
-0.09815556 0.05643333 0.714 0 0 128 63
-0.153 0.0646 0.714 0 0 128 63
-0.1369091 0.06211818 0.7139999 0 0 128 63
-0.1326 0.06255 0.7139999 0 0 128 63
-0.12785 0.06254999 0.7139999 0 0 128 63
-0.1223875 0.06254374 0.7139374 0 0 128 63
-0.11755 0.0625 0.7135 0 0 128 63
-0.1128375 0.062525 0.7137498 0 0 128 63
-0.108 0.06219999 0.7139165 0 0 128 63
-0.1026667 0.0605 0.714 0 0 128 63
-0.1 0.0612 0.714 0 0 128 63
-0.14145 0.0687 0.714 0 0 128 63
-0.1367167 0.06785833 0.7136666 0 0 128 63
-0.13262 0.06753 0.7132999 0 0 128 63
-0.1277833 0.06730001 0.7136666 0 0 128 63
-0.1222769 0.06750001 0.7136154 0 0 128 63
-0.1176333 0.06733333 0.714 0 0 128 63
-0.11285 0.06731667 0.7138332 0 0 128 63
-0.10786 0.06747001 0.7139999 0 0 128 63
-0.102 0.06733333 0.714 0 0 128 63
-0.09965 0.067675 0.714 0 0 128 63
-0.1418875 0.0729 0.713625 0 0 128 63
-0.1373714 0.07228573 0.7131429 0 0 128 63
-0.1324727 0.07226364 0.7139999 0 0 128 63
-0.12785 0.07207499 0.7139999 0 0 128 63
-0.1225929 0.07207857 0.7139999 0 0 128 63
-0.1175091 0.07189091 0.7139999 0 0 128 63
-0.1128091 0.07127272 0.7139999 0 0 128 63
-0.1081333 0.0707 0.714 0 0 128 63
-0.10212 0.07166 0.714 0 0 128 63
-0.1 0.07 0.714 0 0 128 63
-0.1454 0.0791 0.71 0 0 128 63
-0.142475 0.0773375 0.712375 0 0 128 63
-0.1371875 0.07741876 0.7131875 0 0 128 63
-0.1325833 0.07750833 0.7139167 0 0 128 63
-0.12785 0.07752499 0.7139999 0 0 128 63
-0.1231909 0.0775909 0.7139999 0 0 128 63
-0.1168571 0.07762858 0.714 0 0 128 63
-0.112875 0.07768749 0.714 0 0 128 63
-0.1090333 0.07913333 0.714 0 0 128 63
-0.10242 0.07738 0.714 0 0 128 63
-0.1454 0.0845 0.71 0 0 128 63
-0.1423867 0.08251334 0.7112668 0 0 128 63
-0.1372333 0.08220834 0.7134166 0 0 128 63
-0.1324778 0.0822 0.7133333 0 0 128 63
-0.1278333 0.08225833 0.7139167 0 0 128 63
-0.1225818 0.0823909 0.7139999 0 0 128 63
-0.1176286 0.08265714 0.714 0 0 128 63
-0.1121667 0.08226667 0.714 0 0 128 63
-0.1095 0.0809 0.714 0 0 128 63
-0.1454 0.0879 0.71 0 0 128 63
-0.1424 0.08736154 0.7127692 0 0 128 63
-0.13735 0.08705001 0.7139999 0 0 128 63
-0.1326 0.0857 0.714 0 0 128 63
-0.1275571 0.08685715 0.7139999 0 0 128 63
-0.1224 0.08705001 0.7139999 0 0 128 63
-0.117975 0.086375 0.714 0 0 128 63
-0.1454 0.09263333 0.71 0 0 128 63
-0.1426267 0.09214668 0.7124667 0 0 128 63
-0.1384778 0.09255555 0.714 0 0 128 63
-0.126825 0.0911 0.714 0 0 128 63
-0.1231 0.0918 0.714 0 0 128 63
-0.14322 0.09606 0.7114 0 0 128 63
-0.1766 0.0348 0.716 0 0 128 63
-0.0934 0.0348 0.716 0 0 128 63
-0.0866 0.0334 0.716 0 0 128 63
-0.08188889 0.03376667 0.7171111 0 0 128 63
-0.07795 0.0342 0.7179999 0 0 128 63
-0.1834 0.0389 0.716 0 0 128 63
-0.1775857 0.0377 0.716 0 0 128 63
-0.09256364 0.03762727 0.7160001 0 0 128 63
-0.08735 0.038225 0.7165 0 0 128 63
-0.08211666 0.03764167 0.7184999 0 0 128 63
-0.07772858 0.03745715 0.7187143 0 0 128 63
-0.1852667 0.04306667 0.7176666 0 0 128 63
-0.1822929 0.04232857 0.7168572 0 0 128 63
-0.1772067 0.04215334 0.7162667 0 0 128 63
-0.1729667 0.04386667 0.716 0 0 128 63
-0.09264667 0.04225334 0.7162667 0 0 128 63
-0.08731334 0.04240667 0.7173333 0 0 128 63
-0.08265386 0.04229231 0.719 0 0 128 63
-0.07764 0.04245 0.7189999 0 0 128 63
-0.0746 0.0431 0.719 0 0 128 63
-0.1856 0.0459 0.719 0 0 128 63
-0.1824875 0.0469 0.7189999 0 0 128 63
-0.1767167 0.047775 0.7165 0 0 128 63
-0.17287 0.0475 0.7163001 0 0 128 63
-0.1698 0.0471 0.716 0 0 128 63
-0.09280626 0.04778124 0.7165 0 0 128 63
-0.08769286 0.04754286 0.7175714 0 0 128 63
-0.08257 0.04709 0.7187999 0 0 128 63
-0.0774 0.04655 0.719 0 0 128 63
-0.18215 0.0507 0.7189999 0 0 128 63
-0.1772 0.05267778 0.7183332 0 0 128 63
-0.1728222 0.05258889 0.7172222 0 0 128 63
-0.0961 0.0539 0.716 0 0 128 63
-0.09284999 0.05255 0.7167501 0 0 128 63
-0.08735002 0.05227143 0.7180001 0 0 128 63
-0.08335 0.0517 0.7187499 0 0 128 63
-0.07826667 0.05093333 0.719 0 0 128 63
-0.1770111 0.05696667 0.7187777 0 0 128 63
-0.1726615 0.05755385 0.7174615 0 0 128 63
-0.1698 0.0566 0.716 0 0 128 63
-0.1512714 0.05858571 0.7187143 0 0 128 63
-0.1470583 0.05718333 0.71775 0 0 128 63
-0.1433857 0.0576 0.7164286 0 0 128 63
-0.1002 0.0552 0.716 0 0 128 63
-0.0975 0.05865 0.716 0 0 128 63
-0.0929125 0.057375 0.71725 0 0 128 63
-0.08758751 0.057475 0.7183749 0 0 128 63
-0.0839 0.05734 0.7186 0 0 128 63
-0.176 0.0616 0.719 0 0 128 63
-0.17282 0.0621 0.7183999 0 0 128 63
-0.1521154 0.06259231 0.7186923 0 0 128 63
-0.1475417 0.06316666 0.7183332 0 0 128 63
-0.1425727 0.06262727 0.7168182 0 0 128 63
-0.13872 0.0637 0.716 0 0 128 63
-0.10605 0.063775 0.716 0 0 128 63
-0.1024636 0.06355456 0.7160001 0 0 128 63
-0.097575 0.06279166 0.7165 0 0 128 63
-0.09314286 0.06257143 0.7175714 0 0 128 63
-0.08871429 0.0625 0.719 0 0 128 63
-0.1520222 0.0677 0.7179999 0 0 128 63
-0.14782 0.06720999 0.7186 0 0 128 63
-0.1431572 0.06672858 0.7181429 0 0 128 63
-0.1398 0.0668 0.716 0 0 128 63
-0.1057 0.0668 0.716 0 0 128 63
-0.1043 0.0675 0.716 0 0 128 63
-0.09737499 0.06735 0.7162501 0 0 128 63
-0.09282856 0.06733571 0.7182143 0 0 128 63
-0.08891428 0.06644286 0.719 0 0 128 63
-0.1516538 0.0722077 0.719 0 0 128 63
-0.1470875 0.0728625 0.718375 0 0 128 63
-0.143075 0.07065 0.717 0 0 128 63
-0.1207 0.0743 0.716 0 0 128 63
-0.11725 0.0743 0.716 0 0 128 63
-0.112875 0.073975 0.716 0 0 128 63
-0.10736 0.07311001 0.7161 0 0 128 63
-0.10241 0.07269 0.716 0 0 128 63
-0.09755834 0.07230834 0.7163334 0 0 128 63
-0.0932143 0.07220714 0.7172858 0 0 128 63
-0.089 0.0705 0.719 0 0 128 63
-0.15065 0.076 0.719 0 0 128 63
-0.14725 0.077225 0.7175 0 0 128 63
-0.12098 0.07762001 0.716 0 0 128 63
-0.1179429 0.07785715 0.716 0 0 128 63
-0.1125333 0.0773 0.716 0 0 128 63
-0.1074 0.07740001 0.7161539 0 0 128 63
-0.1021273 0.07783637 0.7162728 0 0 128 63
-0.09718 0.07777335 0.7176 0 0 128 63
-0.09306668 0.07733334 0.7186667 0 0 128 63
-0.1207 0.0811 0.716 0 0 128 63
-0.116575 0.08145 0.716 0 0 128 63
-0.1129143 0.08270001 0.716 0 0 128 63
-0.1076636 0.08273636 0.7168182 0 0 128 63
-0.102425 0.08263333 0.717 0 0 128 63
-0.09700002 0.08257693 0.7183846 0 0 128 63
-0.0938 0.082175 0.719 0 0 128 63
-0.132275 0.08865 0.716 0 0 128 63
-0.1163125 0.0880375 0.716375 0 0 128 63
-0.11214 0.08757333 0.7172 0 0 128 63
-0.1076077 0.08741539 0.7183077 0 0 128 63
-0.1027333 0.08748667 0.7187333 0 0 128 63
-0.09744287 0.08735715 0.719 0 0 128 63
-0.0938 0.087 0.719 0 0 128 63
-0.1412 0.0948 0.716 0 0 128 63
-0.1364143 0.09272858 0.7165715 0 0 128 63
-0.1323875 0.092825 0.7165625 0 0 128 63
-0.1277375 0.0934625 0.71625 0 0 128 63
-0.1227 0.09297692 0.7165384 0 0 128 63
-0.1173188 0.09279375 0.7163125 0 0 128 63
-0.1121467 0.09276 0.7172 0 0 128 63
-0.107675 0.0926 0.7189999 0 0 128 63
-0.103225 0.0926 0.7189999 0 0 128 63
-0.1459 0.0993 0.719 0 0 128 63
-0.1421 0.09778 0.7179999 0 0 128 63
-0.1377625 0.09738751 0.7187499 0 0 128 63
-0.1326667 0.09778334 0.7179999 0 0 128 63
-0.12757 0.09789001 0.7178 0 0 128 63
-0.1227636 0.09753636 0.7171819 0 0 128 63
-0.1173333 0.09755 0.7163334 0 0 128 63
-0.1121727 0.09726364 0.7169091 0 0 128 63
-0.1077692 0.09746923 0.718 0 0 128 63
-0.1035273 0.09706365 0.7189999 0 0 128 63
-0.1363 0.102725 0.719 0 0 128 63
-0.13285 0.102725 0.7189999 0 0 128 63
-0.1272375 0.1026125 0.7182499 0 0 128 63
-0.1225167 0.102675 0.7186667 0 0 128 63
-0.1174125 0.1023938 0.7168125 0 0 128 63
-0.1126583 0.1024083 0.7169167 0 0 128 63
-0.1085385 0.1024539 0.7182308 0 0 128 63
-0.1048 0.102 0.719 0 0 128 63
-0.1325909 0.1075727 0.7186363 0 0 128 63
-0.1273357 0.1076929 0.7177144 0 0 128 63
-0.1221857 0.1073 0.719 0 0 128 63
-0.11816 0.10733 0.7187999 0 0 128 63
-0.11224 0.10716 0.7186 0 0 128 63
-0.132175 0.11125 0.7189999 0 0 128 63
-0.127375 0.1116 0.7189999 0 0 128 63
-0.1226 0.1102 0.719 0 0 128 63
-0.0761 0.0336 0.72 0 0 128 63
-0.07343333 0.03363333 0.7206668 0 0 128 63
-0.07610001 0.03726667 0.72 0 0 128 63
-0.07272501 0.03705 0.7205001 0 0 128 63
-0.06756 0.03700667 0.7224666 0 0 128 63
-0.1872 0.0446 0.72 0 0 128 63
-0.0802 0.0432 0.72 0 0 128 63
-0.0761 0.04255 0.72 0 0 128 63
-0.07268001 0.04255334 0.7214001 0 0 128 63
-0.06835714 0.0418 0.723 0 0 128 63
-0.1869667 0.04776667 0.72 0 0 128 63
-0.1817 0.048 0.72 0 0 128 63
-0.0802 0.048 0.72 0 0 128 63
-0.07750001 0.0475 0.72 0 0 128 63
-0.0734875 0.0470375 0.7212501 0 0 128 63
-0.1905 0.0536 0.722 0 0 128 63
-0.1874084 0.05216667 0.7208334 0 0 128 63
-0.1824 0.0535 0.72 0 0 128 63
-0.0811125 0.0524875 0.72025 0 0 128 63
-0.07714 0.05266 0.7219 0 0 128 63
-0.074175 0.050825 0.7212501 0 0 128 63
-0.1907 0.0565 0.723 0 0 128 63
-0.1874636 0.05752727 0.7229092 0 0 128 63
-0.1824 0.05748572 0.7212144 0 0 128 63
-0.1787 0.05926667 0.7206668 0 0 128 63
-0.1488 0.0597 0.72 0 0 128 63
-0.08177779 0.05732222 0.7214445 0 0 128 63
-0.078475 0.056475 0.72275 0 0 128 63
-0.1819667 0.0622 0.7228333 0 0 128 63
-0.1782429 0.06268572 0.721 0 0 128 63
-0.1488 0.061 0.72 0 0 128 63
-0.08626001 0.06212 0.72 0 0 128 63
-0.0845 0.0625 0.7213334 0 0 128 63
-0.177675 0.067075 0.7225 0 0 128 63
-0.1733833 0.06755 0.7200001 0 0 128 63
-0.1694 0.0693 0.72 0 0 128 63
-0.1461 0.0686 0.72 0 0 128 63
-0.1447 0.0693 0.72 0 0 128 63
-0.08678889 0.06774445 0.7200001 0 0 128 63
-0.08436 0.06699999 0.7224 0 0 128 63
-0.175875 0.071925 0.72275 0 0 128 63
-0.172725 0.07201251 0.7218751 0 0 128 63
-0.1536 0.07404999 0.72 0 0 128 63
-0.147425 0.071975 0.72 0 0 128 63
-0.0912 0.07404999 0.72 0 0 128 63
-0.08779091 0.07257273 0.7207274 0 0 128 63
-0.0846 0.0722 0.722 0 0 128 63
-0.1756 0.0751 0.723 0 0 128 63
-0.1720571 0.07624286 0.723 0 0 128 63
-0.1488 0.0761 0.72 0 0 128 63
-0.09120001 0.07750001 0.72 0 0 128 63
-0.08787332 0.07716666 0.7220666 0 0 128 63
-0.09140909 0.08252727 0.7205456 0 0 128 63
-0.08797778 0.08248889 0.7224445 0 0 128 63
-0.08423334 0.08423334 0.723 0 0 128 63
-0.1022 0.0898 0.72 0 0 128 63
-0.096 0.0898 0.72 0 0 128 63
-0.09202307 0.08759232 0.7206924 0 0 128 63
-0.1063 0.0912 0.72 0 0 128 63
-0.101825 0.092225 0.72 0 0 128 63
-0.097375 0.09256667 0.7200001 0 0 128 63
-0.0937 0.09262 0.7224001 0 0 128 63
-0.1563 0.0985 0.723 0 0 128 63
-0.1522 0.0998 0.723 0 0 128 63
-0.1419333 0.09940001 0.72 0 0 128 63
-0.1385 0.0994 0.72 0 0 128 63
-0.1077 0.0953 0.72 0 0 128 63
-0.10114 0.09784 0.7204 0 0 128 63
-0.09792 0.09669 0.721 0 0 128 63
-0.1512667 0.1016667 0.723 0 0 128 63
-0.1474667 0.1025222 0.7224445 0 0 128 63
-0.1423286 0.1026572 0.7200001 0 0 128 63
-0.1385 0.10285 0.72 0 0 128 63
-0.1063 0.1035333 0.72 0 0 128 63
-0.10295 0.1024917 0.7206668 0 0 128 63
-0.09915 0.1012 0.723 0 0 128 63
-0.1458714 0.1075 0.7228572 0 0 128 63
-0.1421111 0.1078 0.720889 0 0 128 63
-0.13756 0.10753 0.7200001 0 0 128 63
-0.1241 0.10835 0.72 0 0 128 63
-0.1159 0.10835 0.72 0 0 128 63
-0.11245 0.109 0.72 0 0 128 63
-0.1077333 0.1077333 0.7204445 0 0 128 63
-0.1029733 0.1073733 0.7218001 0 0 128 63
-0.0998 0.1088 0.723 0 0 128 63
-0.1459667 0.1122 0.7228333 0 0 128 63
-0.14204 0.11224 0.7212001 0 0 128 63
-0.13734 0.1126267 0.7202668 0 0 128 63
-0.13288 0.11368 0.72 0 0 128 63
-0.1271 0.1140333 0.72 0 0 128 63
-0.1227364 0.1126364 0.7200001 0 0 128 63
-0.1181467 0.11238 0.7204002 0 0 128 63
-0.1126333 0.1119583 0.7211667 0 0 128 63
-0.1074273 0.1121909 0.7218183 0 0 128 63
-0.1025 0.11145 0.7223334 0 0 128 63
-0.146 0.1157 0.723 0 0 128 63
-0.1423333 0.1169444 0.7227778 0 0 128 63
-0.137575 0.117625 0.7222501 0 0 128 63
-0.1325778 0.1175 0.7213334 0 0 128 63
-0.127725 0.1174417 0.7210001 0 0 128 63
-0.12271 0.1175 0.7214001 0 0 128 63
-0.117925 0.1173333 0.7219168 0 0 128 63
-0.1143 0.1163667 0.723 0 0 128 63
-0.1081 0.115 0.723 0 0 128 63
-0.1412 0.1205 0.723 0 0 128 63
-0.1372333 0.1209667 0.723 0 0 128 63
-0.1321714 0.1222572 0.7228571 0 0 128 63
-0.12746 0.12209 0.7226 0 0 128 63
-0.1230625 0.121675 0.72275 0 0 128 63
-0.11805 0.1208 0.72275 0 0 128 63
-0.1315 0.126 0.723 0 0 128 63
-0.0656 0.0394 0.725 0 0 128 63
-0.06235385 0.0378 0.7258462 0 0 128 63
-0.058575 0.038475 0.72825 0 0 128 63
-0.06701111 0.0435 0.7252222 0 0 128 63
-0.06236154 0.04238462 0.7257692 0 0 128 63
-0.05836 0.04204 0.728 0 0 128 63
-0.07179999 0.0483 0.725 0 0 128 63
-0.06771667 0.04766667 0.7254167 0 0 128 63
-0.06224 0.04728 0.7278001 0 0 128 63
-0.05896667 0.0465 0.7286667 0 0 128 63
-0.0753 0.0545 0.725 0 0 128 63
-0.07221999 0.05275 0.725 0 0 128 63
-0.067775 0.05255625 0.7259999 0 0 128 63
-0.06290909 0.05255454 0.7286364 0 0 128 63
-0.0766375 0.05765 0.725 0 0 128 63
-0.07257777 0.05736667 0.7257777 0 0 128 63
-0.06808183 0.05736364 0.7273637 0 0 128 63
-0.063525 0.05655 0.72875 0 0 128 63
-0.1901 0.06290001 0.726 0 0 128 63
-0.187525 0.062175 0.7252499 0 0 128 63
-0.1839333 0.06373334 0.7250001 0 0 128 63
-0.08204545 0.06233636 0.725 0 0 128 63
-0.0773625 0.062175 0.725375 0 0 128 63
-0.07223333 0.06226 0.7279333 0 0 128 63
-0.0687 0.0611 0.729 0 0 128 63
-0.1905 0.06720001 0.7273333 0 0 128 63
-0.18737 0.0673 0.7270001 0 0 128 63
-0.1822462 0.06767692 0.7255385 0 0 128 63
-0.1788 0.0684 0.725 0 0 128 63
-0.08208182 0.0679 0.7253636 0 0 128 63
-0.07764616 0.06734616 0.7265385 0 0 128 63
-0.07318 0.06652 0.729 0 0 128 63
-0.1909 0.0701 0.729 0 0 128 63
-0.1870385 0.0718 0.7287692 0 0 128 63
-0.1821111 0.07271111 0.7271111 0 0 128 63
-0.17828 0.07277999 0.725 0 0 128 63
-0.0822 0.07253333 0.7253333 0 0 128 63
-0.078775 0.0723375 0.728625 0 0 128 63
-0.1854 0.0757 0.729 0 0 128 63
-0.1821818 0.07756364 0.7278183 0 0 128 63
-0.1776455 0.07752728 0.7251818 0 0 128 63
-0.1733 0.0786 0.725 0 0 128 63
-0.08286875 0.07734376 0.7251876 0 0 128 63
-0.07810834 0.07810834 0.7279167 0 0 128 63
-0.18155 0.08225 0.729 0 0 128 63
-0.1779222 0.08238889 0.726889 0 0 128 63
-0.1727833 0.082275 0.72575 0 0 128 63
-0.1694 0.083 0.726 0 0 128 63
-0.087 0.08252499 0.725 0 0 128 63
-0.0825 0.08250769 0.7251539 0 0 128 63
-0.07758334 0.08243333 0.7273334 0 0 128 63
-0.1769375 0.0869375 0.728625 0 0 128 63
-0.1725461 0.08702309 0.7266923 0 0 128 63
-0.1686 0.0878 0.726 0 0 128 63
-0.08770001 0.0877 0.725 0 0 128 63
-0.08288334 0.08773334 0.7253333 0 0 128 63
-0.07755001 0.08725001 0.7271249 0 0 128 63
-0.0742 0.0867 0.728 0 0 128 63
-0.1757 0.09164999 0.729 0 0 128 63
-0.1727667 0.09225556 0.7284445 0 0 128 63
-0.1675933 0.09284667 0.7265333 0 0 128 63
-0.162675 0.094275 0.72525 0 0 128 63
-0.09137777 0.09275556 0.725 0 0 128 63
-0.08775001 0.09258334 0.7255 0 0 128 63
-0.08312666 0.09253334 0.7261333 0 0 128 63
-0.07762501 0.0922 0.7278333 0 0 128 63
-0.171975 0.096825 0.72875 0 0 128 63
-0.1674273 0.09753637 0.7271819 0 0 128 63
-0.1624444 0.09747779 0.7257777 0 0 128 63
-0.1587143 0.0975 0.726 0 0 128 63
-0.09736668 0.09870001 0.7250001 0 0 128 63
-0.092525 0.09736668 0.725 0 0 128 63
-0.0875 0.09760001 0.7257 0 0 128 63
-0.082775 0.09734167 0.7274167 0 0 128 63
-0.07832728 0.09661819 0.7289092 0 0 128 63
-0.1712667 0.10365 0.729 0 0 128 63
-0.1672167 0.1026833 0.7285833 0 0 128 63
-0.1625667 0.102375 0.7263333 0 0 128 63
-0.157475 0.1022313 0.7252501 0 0 128 63
-0.1532 0.1029 0.725 0 0 128 63
-0.1498 0.1043 0.725 0 0 128 63
-0.1001 0.1036 0.725 0 0 128 63
-0.09725455 0.1022727 0.7250909 0 0 128 63
-0.09261875 0.1022813 0.7257499 0 0 128 63
-0.08734375 0.1025625 0.7277501 0 0 128 63
-0.0829125 0.102 0.728625 0 0 128 63
-0.0798 0.1007 0.729 0 0 128 63
-0.17094 0.10788 0.729 0 0 128 63
-0.1672556 0.1075778 0.7287778 0 0 128 63
-0.1626333 0.1073 0.7266667 0 0 128 63
-0.1576375 0.1078625 0.7259374 0 0 128 63
-0.1527333 0.1078167 0.7256666 0 0 128 63
-0.1489222 0.1076222 0.725 0 0 128 63
-0.1001 0.1063 0.725 0 0 128 63
-0.09739166 0.1077417 0.7252499 0 0 128 63
-0.09307143 0.1078286 0.7277143 0 0 128 63
-0.08855 0.1069 0.729 0 0 128 63
-0.1665 0.1122 0.729 0 0 128 63
-0.1626923 0.1124769 0.728 0 0 128 63
-0.1574636 0.1125727 0.726 0 0 128 63
-0.1527333 0.1126444 0.7256666 0 0 128 63
-0.14915 0.1125333 0.725 0 0 128 63
-0.1021 0.1129143 0.725 0 0 128 63
-0.09741112 0.1126111 0.7254444 0 0 128 63
-0.09270715 0.1126143 0.728 0 0 128 63
-0.08913334 0.1141333 0.729 0 0 128 63
-0.1659 0.1173 0.729 0 0 128 63
-0.16261 0.11732 0.7272 0 0 128 63
-0.15765 0.11755 0.7259999 0 0 128 63
-0.1526333 0.1174167 0.7251667 0 0 128 63
-0.1479714 0.1176 0.7250001 0 0 128 63
-0.1443 0.1188 0.725 0 0 128 63
-0.1153 0.1195 0.725 0 0 128 63
-0.1120889 0.1176444 0.7251111 0 0 128 63
-0.1076786 0.11775 0.7254285 0 0 128 63
-0.1024125 0.1176437 0.7266249 0 0 128 63
-0.09744167 0.117325 0.72825 0 0 128 63
-0.09233333 0.1166 0.729 0 0 128 63
-0.1701 0.1222 0.729 0 0 128 63
-0.1671 0.1225 0.729 0 0 128 63
-0.16308 0.12242 0.7287 0 0 128 63
-0.1576333 0.1223833 0.7259166 0 0 128 63
-0.1526222 0.1222222 0.7251111 0 0 128 63
-0.147775 0.1222 0.725 0 0 128 63
-0.14254 0.12252 0.7251999 0 0 128 63
-0.13775 0.12325 0.725 0 0 128 63
-0.12185 0.12255 0.725 0 0 128 63
-0.1169 0.12275 0.725125 0 0 128 63
-0.1122182 0.1225545 0.7262728 0 0 128 63
-0.1078 0.1222444 0.7270001 0 0 128 63
-0.1030143 0.1220429 0.7287143 0 0 128 63
-0.0993 0.1215 0.729 0 0 128 63
-0.1659 0.1257 0.729 0 0 128 63
-0.1616125 0.1269 0.729 0 0 128 63
-0.1574667 0.127625 0.7283334 0 0 128 63
-0.1523933 0.12748 0.7267333 0 0 128 63
-0.1474462 0.1270231 0.7256923 0 0 128 63
-0.142425 0.1272125 0.7259999 0 0 128 63
-0.1374667 0.1271167 0.7253333 0 0 128 63
-0.1326231 0.1274154 0.725 0 0 128 63
-0.12745 0.127475 0.7254166 0 0 128 63
-0.1228667 0.1269933 0.7255333 0 0 128 63
-0.1175687 0.1272188 0.7260624 0 0 128 63
-0.1122937 0.1275312 0.7278125 0 0 128 63
-0.10845 0.1280667 0.7283334 0 0 128 63
-0.152375 0.13155 0.729 0 0 128 63
-0.14615 0.13155 0.729 0 0 128 63
-0.142225 0.13235 0.7286251 0 0 128 63
-0.13758 0.13244 0.7273001 0 0 128 63
-0.1327818 0.1321818 0.7272727 0 0 128 63
-0.1276833 0.132525 0.7285833 0 0 128 63
-0.12305 0.1324 0.728875 0 0 128 63
-0.1166 0.134 0.729 0 0 128 63
-0.1409 0.1354 0.729 0 0 128 63
-0.1375 0.1354 0.729 0 0 128 63
-0.1312 0.1354 0.729 0 0 128 63
-0.1257 0.1354 0.729 0 0 128 63
-0.1236 0.1354 0.729 0 0 128 63
-0.118 0.1354 0.729 0 0 128 63
-0.05645714 0.0383 0.7315714 0 0 128 63
-0.05238333 0.03908334 0.7336667 0 0 128 63
-0.0496 0.0384 0.734 0 0 128 63
-0.05604286 0.0427 0.7314286 0 0 128 63
-0.0528 0.04240001 0.7340001 0 0 128 63
-0.05668462 0.04753846 0.7316923 0 0 128 63
-0.0529 0.048 0.7335001 0 0 128 63
-0.062 0.0529 0.731 0 0 128 63
-0.057175 0.052275 0.7318333 0 0 128 63
-0.052525 0.052175 0.733 0 0 128 63
-0.0661 0.0592 0.731 0 0 128 63
-0.062 0.05796666 0.7311111 0 0 128 63
-0.0579 0.05664 0.7324001 0 0 128 63
-0.0538 0.0552 0.734 0 0 128 63
-0.0703 0.0647 0.731 0 0 128 63
-0.06737778 0.06276667 0.7313333 0 0 128 63
-0.0633 0.0615875 0.7327501 0 0 128 63
-0.07174286 0.06814286 0.7314286 0 0 128 63
-0.06791429 0.06691428 0.733143 0 0 128 63
-0.19094 0.07338 0.731 0 0 128 63
-0.1887 0.0745 0.731 0 0 128 63
-0.07650001 0.07250001 0.7310001 0 0 128 63
-0.07254375 0.07254375 0.7324376 0 0 128 63
-0.1901 0.0773 0.7310001 0 0 128 63
-0.187475 0.077475 0.731 0 0 128 63
-0.1845 0.0787 0.731 0 0 128 63
-0.0766 0.0766 0.731 0 0 128 63
-0.07255834 0.07745834 0.7325834 0 0 128 63
-0.19025 0.082275 0.73175 0 0 128 63
-0.1873833 0.08222501 0.7314166 0 0 128 63
-0.18394 0.0831 0.731 0 0 128 63
-0.07245 0.08222501 0.7315 0 0 128 63
-0.0692 0.0804 0.734 0 0 128 63
-0.19055 0.08655 0.733 0 0 128 63
-0.186925 0.087175 0.7325 0 0 128 63
-0.1822917 0.08751668 0.7315 0 0 128 63
-0.17855 0.08875 0.731 0 0 128 63
-0.0724643 0.08767144 0.7316429 0 0 128 63
-0.0692 0.0874 0.734 0 0 128 63
-0.1852 0.0916 0.7340001 0 0 128 63
-0.1824 0.0926 0.7332 0 0 128 63
-0.1779857 0.09282856 0.7312858 0 0 128 63
-0.07316667 0.09266666 0.7316666 0 0 128 63
-0.182175 0.09730001 0.7335 0 0 128 63
-0.177675 0.09755833 0.7315833 0 0 128 63
-0.17418 0.09848 0.731 0 0 128 63
-0.07674 0.09876001 0.731 0 0 128 63
-0.07348572 0.09662858 0.7328571 0 0 128 63
-0.18145 0.10105 0.734 0 0 128 63
-0.17775 0.1024 0.7325 0 0 128 63
-0.1730125 0.101775 0.731 0 0 128 63
-0.08115 0.1034 0.73125 0 0 128 63
-0.077625 0.1023875 0.7325 0 0 128 63
-0.0748 0.1014 0.734 0 0 128 63
-0.17678 0.10704 0.7323999 0 0 128 63
-0.1736667 0.1071222 0.731 0 0 128 63
-0.087175 0.10825 0.731 0 0 128 63
-0.08244617 0.1073539 0.7321539 0 0 128 63
-0.0783 0.1056 0.734 0 0 128 63
-0.17725 0.11285 0.734 0 0 128 63
-0.1726 0.1123462 0.7313077 0 0 128 63
-0.16892 0.11322 0.731 0 0 128 63
-0.087475 0.112225 0.7310833 0 0 128 63
-0.08392 0.11204 0.7328 0 0 128 63
-0.177 0.1162 0.733 0 0 128 63
-0.1729866 0.1172 0.7317334 0 0 128 63
-0.1685 0.1176667 0.7310001 0 0 128 63
-0.0954 0.119 0.731 0 0 128 63
-0.0926 0.119 0.7310001 0 0 128 63
-0.08780909 0.1172364 0.7314546 0 0 128 63
-0.0844 0.115 0.732 0 0 128 63
-0.17205 0.1208 0.73125 0 0 128 63
-0.16808 0.12208 0.731 0 0 128 63
-0.165 0.1218 0.731 0 0 128 63
-0.1058 0.1246 0.731 0 0 128 63
-0.10195 0.12425 0.731 0 0 128 63
-0.09768 0.1223 0.7314 0 0 128 63
-0.09233334 0.1207 0.7326667 0 0 128 63
-0.0888 0.1209 0.734 0 0 128 63
-0.1678 0.126 0.731 0 0 128 63
-0.1636 0.1281 0.731 0 0 128 63
-0.1064 0.1273 0.731375 0 0 128 63
-0.1024333 0.1275333 0.7316666 0 0 128 63
-0.09862857 0.1279286 0.7328573 0 0 128 63
-0.1615 0.1309 0.731 0 0 128 63
-0.15732 0.133 0.731 0 0 128 63
-0.1527333 0.1334667 0.7310001 0 0 128 63
-0.148125 0.133525 0.731 0 0 128 63
-0.1427 0.1344 0.731 0 0 128 63
-0.12075 0.13335 0.731 0 0 128 63
-0.1178571 0.1326 0.7310001 0 0 128 63
-0.112825 0.1330417 0.73125 0 0 128 63
-0.1072357 0.1328214 0.7322858 0 0 128 63
-0.1031167 0.1314833 0.733 0 0 128 63
-0.1 0.1307 0.734 0 0 128 63
-0.1557333 0.1362333 0.7310001 0 0 128 63
-0.1521889 0.1372889 0.731 0 0 128 63
-0.1475 0.1375286 0.7310001 0 0 128 63
-0.14284 0.13782 0.731 0 0 128 63
-0.137825 0.1385 0.7310001 0 0 128 63
-0.1322 0.1378214 0.7310001 0 0 128 63
-0.1275273 0.1380091 0.7310001 0 0 128 63
-0.1223 0.1381143 0.7310001 0 0 128 63
-0.1176625 0.1378125 0.731 0 0 128 63
-0.1134 0.13727 0.7324001 0 0 128 63
-0.10895 0.1361 0.733 0 0 128 63
-0.1475182 0.1421727 0.7321818 0 0 128 63
-0.1426273 0.1426273 0.7319091 0 0 128 63
-0.1377273 0.1428091 0.7315454 0 0 128 63
-0.1326615 0.1427308 0.7322308 0 0 128 63
-0.12747 0.1431 0.7330001 0 0 128 63
-0.1224572 0.1421857 0.7324286 0 0 128 63
-0.1179 0.1414 0.7326667 0 0 128 63
-0.1457 0.1457 0.732 0 0 128 63
-0.14228 0.14718 0.7338001 0 0 128 63
-0.1376334 0.1467333 0.7336667 0 0 128 63
-0.1342 0.1461 0.734 0 0 128 63
-0.0484 0.0386 0.736 0 0 128 63
-0.0512 0.0435 0.736 0 0 128 63
-0.04807143 0.04194286 0.7377858 0 0 128 63
-0.0429 0.0422 0.739 0 0 128 63
-0.05155 0.04665 0.736 0 0 128 63
-0.04834546 0.04784545 0.7379091 0 0 128 63
-0.0443 0.0486 0.739 0 0 128 63
-0.0512 0.054 0.736 0 0 128 63
-0.04758571 0.05231429 0.7380001 0 0 128 63
-0.04278333 0.05233334 0.739 0 0 128 63
-0.05636667 0.05846667 0.7363334 0 0 128 63
-0.05264 0.05759 0.7371 0 0 128 63
-0.04877143 0.05658572 0.7387143 0 0 128 63
-0.0408 0.0556 0.739 0 0 128 63
-0.06205 0.06345 0.736 0 0 128 63
-0.0576 0.0625 0.73725 0 0 128 63
-0.05336 0.06316 0.739 0 0 128 63
-0.06604287 0.06804287 0.7364286 0 0 128 63
-0.06283 0.06722 0.7379999 0 0 128 63
-0.05792222 0.06641112 0.7387778 0 0 128 63
-0.0521 0.06690001 0.739 0 0 128 63
-0.05 0.0676 0.739 0 0 128 63
-0.067375 0.07227501 0.7367501 0 0 128 63
-0.06344 0.07221999 0.739 0 0 128 63
-0.06742501 0.07722501 0.73725 0 0 128 63
-0.0633 0.0753 0.739 0 0 128 63
-0.06748462 0.08268462 0.7373078 0 0 128 63
-0.1914 0.089 0.736 0 0 128 63
-0.19 0.0883 0.736 0 0 128 63
-0.06762 0.08727 0.7378 0 0 128 63
-0.1906667 0.09216666 0.737 0 0 128 63
-0.1876889 0.09275556 0.7361111 0 0 128 63
-0.0708 0.09249999 0.736 0 0 128 63
-0.06895715 0.09241429 0.7375715 0 0 128 63
-0.1902 0.09760001 0.737 0 0 128 63
-0.1873111 0.09751111 0.7365556 0 0 128 63
-0.1844 0.096 0.736 0 0 128 63
-0.07168 0.09804001 0.7364001 0 0 128 63
-0.06896667 0.09706667 0.7386667 0 0 128 63
-0.190575 0.102725 0.7385001 0 0 128 63
-0.1875917 0.1026083 0.7377501 0 0 128 63
-0.1832 0.1030889 0.7364445 0 0 128 63
-0.07535 0.103 0.736 0 0 128 63
-0.07241666 0.1026667 0.7381667 0 0 128 63
-0.1872 0.1077 0.739 0 0 128 63
-0.1822545 0.1072364 0.7368181 0 0 128 63
-0.1787 0.1079 0.736 0 0 128 63
-0.0806 0.1086 0.736 0 0 128 63
-0.07691 0.10765 0.7369 0 0 128 63
-0.0735 0.107275 0.7385001 0 0 128 63
-0.18622 0.11162 0.739 0 0 128 63
-0.1820308 0.1121462 0.7370769 0 0 128 63
-0.1787 0.1114667 0.736 0 0 128 63
-0.08155001 0.1128 0.73675 0 0 128 63
-0.07771539 0.1121308 0.7383847 0 0 128 63
-0.0739 0.1112 0.739 0 0 128 63
-0.18095 0.11575 0.7365 0 0 128 63
-0.1787 0.1171 0.736 0 0 128 63
-0.0876 0.1199 0.736 0 0 128 63
-0.08284001 0.11727 0.7374 0 0 128 63
-0.0795 0.1161 0.739 0 0 128 63
-0.0967 0.1241 0.736 0 0 128 63
-0.09251111 0.1232333 0.7366667 0 0 128 63
-0.08741251 0.1223625 0.737375 0 0 128 63
-0.08416667 0.1207333 0.7383334 0 0 128 63
-0.09685715 0.1273286 0.7362858 0 0 128 63
-0.09316 0.12699 0.7376 0 0 128 63
-0.0894 0.126 0.739 0 0 128 63
-0.1014 0.13342 0.7364 0 0 128 63
-0.09762223 0.1327556 0.7374444 0 0 128 63
-0.0935 0.13075 0.738 0 0 128 63
-0.1115 0.1388 0.736 0 0 128 63
-0.10772 0.13848 0.7365 0 0 128 63
-0.10291 0.13678 0.738 0 0 128 63
-0.0985 0.1358 0.739 0 0 128 63
-0.11656 0.1429 0.7362 0 0 128 63
-0.11235 0.14255 0.73725 0 0 128 63
-0.1078 0.142625 0.7385 0 0 128 63
-0.1044333 0.1405667 0.739 0 0 128 63
-0.1437 0.1493 0.736 0 0 128 63
-0.13702 0.14906 0.7362 0 0 128 63
-0.132425 0.148175 0.7365 0 0 128 63
-0.1275308 0.1478385 0.7367692 0 0 128 63
-0.1225846 0.1475308 0.7368462 0 0 128 63
-0.1178267 0.14734 0.7374001 0 0 128 63
-0.11296 0.1459 0.7386001 0 0 128 63
-0.1091 0.1457 0.739 0 0 128 63
-0.1411 0.1509 0.737 0 0 128 63
-0.1375273 0.1523182 0.7377273 0 0 128 63
-0.1323546 0.1526454 0.7380909 0 0 128 63
-0.12761 0.15248 0.7386 0 0 128 63
-0.1226889 0.1521889 0.7387778 0 0 128 63
-0.1182 0.1513 0.739 0 0 128 63
-0.1362667 0.1559667 0.739 0 0 128 63
-0.1325333 0.1566111 0.739 0 0 128 63
-0.1288 0.1555 0.739 0 0 128 63
-0.0458 0.0437 0.74 0 0 128 63
-0.04275556 0.04258889 0.7412222 0 0 128 63
-0.0368 0.0432 0.743 0 0 128 63
-0.0347 0.0432 0.743 0 0 128 63
-0.04676667 0.04630001 0.7406667 0 0 128 63
-0.04265556 0.04737778 0.7425556 0 0 128 63
-0.04065 0.051675 0.743 0 0 128 63
-0.0389 0.0538 0.743 0 0 128 63
-0.0514 0.0599 0.74 0 0 128 63
-0.046925 0.05755 0.7410001 0 0 128 63
-0.0437 0.0564 0.74 0 0 128 63
-0.0512375 0.0621875 0.741875 0 0 128 63
-0.04833333 0.06228334 0.7428333 0 0 128 63
-0.0613 0.0691 0.74 0 0 128 63
-0.05794 0.06896 0.74 0 0 128 63
-0.0543 0.06696667 0.74 0 0 128 63
-0.06128333 0.0733 0.7423334 0 0 128 63
-0.05736667 0.07224999 0.7423334 0 0 128 63
-0.05317273 0.07195455 0.7424545 0 0 128 63
-0.06311429 0.07782858 0.7421429 0 0 128 63
-0.06338571 0.08178572 0.7428572 0 0 128 63
-0.06556667 0.08816668 0.7406667 0 0 128 63
-0.064375 0.087725 0.74275 0 0 128 63
-0.06635 0.09244999 0.7410001 0 0 128 63
-0.0644 0.0927 0.743 0 0 128 63
-0.0666 0.09763334 0.7411111 0 0 128 63
-0.06412001 0.0978 0.743 0 0 128 63
-0.06779167 0.1024083 0.7415 0 0 128 63
-0.0644 0.1019 0.743 0 0 128 63
-0.191 0.1071 0.74 0 0 128 63
-0.1896 0.1085 0.74 0 0 128 63
-0.07155 0.1082167 0.7411667 0 0 128 63
-0.06845 0.10694 0.7426 0 0 128 63
-0.07586667 0.1144333 0.74 0 0 128 63
-0.07183333 0.1126222 0.7416667 0 0 128 63
-0.06906667 0.1115 0.7426667 0 0 128 63
-0.081 0.1191 0.74 0 0 128 63
-0.0775091 0.1181091 0.7418182 0 0 128 63
-0.07241111 0.1162556 0.7427778 0 0 128 63
-0.0686 0.1153 0.743 0 0 128 63
-0.08623333 0.1237667 0.74 0 0 128 63
-0.08243334 0.1221833 0.7416667 0 0 128 63
-0.07889999 0.12135 0.743 0 0 128 63
-0.0923 0.129 0.74 0 0 128 63
-0.08726668 0.1278167 0.7420833 0 0 128 63
-0.08357144 0.1270286 0.7427143 0 0 128 63
-0.0951 0.1332 0.74 0 0 128 63
-0.0925375 0.13225 0.7416251 0 0 128 63
-0.08802001 0.132 0.7429 0 0 128 63
-0.1015 0.1388 0.74 0 0 128 63
-0.09700909 0.1377091 0.7415454 0 0 128 63
-0.09298 0.13576 0.743 0 0 128 63
-0.1064 0.1445 0.74 0 0 128 63
-0.1028167 0.1428083 0.7409999 0 0 128 63
-0.09773637 0.1419818 0.7424545 0 0 128 63
-0.1126 0.1482714 0.7408572 0 0 128 63
-0.10742 0.148 0.7421001 0 0 128 63
-0.10283 0.14726 0.7426 0 0 128 63
-0.09909999 0.1458 0.743 0 0 128 63
-0.1219 0.1543 0.74 0 0 128 63
-0.1170889 0.1533 0.7411111 0 0 128 63
-0.1129111 0.1517222 0.7425556 0 0 128 63
-0.1083 0.1514 0.743 0 0 128 63
-0.1318 0.1581333 0.74 0 0 128 63
-0.1273333 0.1577778 0.7413334 0 0 128 63
-0.1227636 0.1574727 0.742 0 0 128 63
-0.1174333 0.1563667 0.7428333 0 0 128 63
-0.1139 0.155 0.743 0 0 128 63
-0.13174 0.16084 0.7414001 0 0 128 63
-0.1273 0.161225 0.742625 0 0 128 63
-0.1231 0.1613 0.743 0 0 128 63
-0.04046667 0.04193334 0.7456667 0 0 128 63
-0.03806667 0.04306667 0.745 0 0 128 63
-0.0348 0.0419 0.745 0 0 128 63
-0.0404 0.0468 0.745 0 0 128 63
-0.03768889 0.04766667 0.7468888 0 0 128 63
-0.0349 0.0484 0.747 0 0 128 63
-0.038075 0.0509 0.7475 0 0 128 63
-0.0349 0.0506 0.748 0 0 128 63
-0.04656667 0.06076667 0.7450001 0 0 128 63
-0.06075 0.077425 0.746 0 0 128 63
-0.0576 0.07610001 0.747 0 0 128 63
-0.0548 0.0761 0.747 0 0 128 63
-0.06182 0.08286001 0.7462 0 0 128 63
-0.06255001 0.08745 0.7465 0 0 128 63
-0.06255 0.09241249 0.7465 0 0 128 63
-0.06239999 0.09712 0.7464 0 0 128 63
-0.0628625 0.1023125 0.746 0 0 128 63
-0.06646667 0.1081 0.7450001 0 0 128 63
-0.064 0.1073667 0.7466667 0 0 128 63
-0.06703333 0.1124889 0.746 0 0 128 63
-0.0643 0.1120333 0.7476668 0 0 128 63
-0.07238334 0.1192 0.745 0 0 128 63
-0.06762858 0.1174286 0.7472857 0 0 128 63
-0.0648 0.1168 0.748 0 0 128 63
-0.0809 0.1242 0.745 0 0 128 63
-0.07715714 0.1231857 0.7452857 0 0 128 63
-0.07259168 0.1227583 0.7471666 0 0 128 63
-0.0684 0.1211 0.748 0 0 128 63
-0.08115 0.1278375 0.74575 0 0 128 63
-0.0775 0.1272778 0.7466666 0 0 128 63
-0.073575 0.127325 0.7480001 0 0 128 63
-0.08660001 0.1341 0.745 0 0 128 63
-0.08234615 0.1326462 0.7459999 0 0 128 63
-0.07793334 0.1319111 0.7477778 0 0 128 63
-0.0748 0.1304 0.748 0 0 128 63
-0.09194 0.13823 0.7449999 0 0 128 63
-0.08736666 0.1370333 0.7456666 0 0 128 63
-0.08408 0.13702 0.747 0 0 128 63
-0.0958 0.144 0.745 0 0 128 63
-0.09264545 0.1425364 0.7466363 0 0 128 63
-0.08784 0.14086 0.7476001 0 0 128 63
-0.1015 0.1497 0.745 0 0 128 63
-0.09769 0.14784 0.7455 0 0 128 63
-0.09412001 0.14714 0.7478001 0 0 128 63
-0.1114 0.154 0.745 0 0 128 63
-0.1071333 0.1532667 0.745 0 0 128 63
-0.10264 0.15272 0.7452 0 0 128 63
-0.09815001 0.15191 0.7468001 0 0 128 63
-0.0947 0.1503 0.748 0 0 128 63
-0.1175 0.159 0.745 0 0 128 63
-0.1128333 0.1573111 0.7452222 0 0 128 63
-0.107975 0.1569917 0.7459166 0 0 128 63
-0.10261 0.15698 0.7472 0 0 128 63
-0.099 0.156 0.748 0 0 128 63
-0.1277 0.1639 0.745 0 0 128 63
-0.1216857 0.1633143 0.7460001 0 0 128 63
-0.1178125 0.1622375 0.74625 0 0 128 63
-0.1125444 0.1614333 0.7474445 0 0 128 63
-0.109 0.1603 0.748 0 0 128 63
-0.1267833 0.1666 0.7465 0 0 128 63
-0.1232 0.1667429 0.7477144 0 0 128 63
-0.0336 0.0421 0.75 0 0 128 63
-0.0364 0.045 0.75 0 0 128 63
-0.035 0.0457 0.75 0 0 128 63
-0.03746667 0.05316667 0.7513334 0 0 128 63
-0.03725 0.0551 0.752 0 0 128 63
-0.057 0.07803334 0.7513334 0 0 128 63
-0.06095 0.08315 0.7525 0 0 128 63
-0.0595 0.0839 0.753 0 0 128 63
-0.06075 0.087225 0.7505 0 0 128 63
-0.0585625 0.0879375 0.75225 0 0 128 63
-0.0607 0.09213334 0.75 0 0 128 63
-0.0581875 0.0925625 0.752 0 0 128 63
-0.0607 0.09715 0.75 0 0 128 63
-0.05895 0.09696668 0.7521666 0 0 128 63
-0.06076667 0.1022 0.7506666 0 0 128 63
-0.0594 0.1023667 0.7516667 0 0 128 63
-0.0615 0.1072875 0.7509999 0 0 128 63
-0.06185715 0.1125572 0.7514287 0 0 128 63
-0.0664 0.1193 0.75 0 0 128 63
-0.06370001 0.1174 0.7516667 0 0 128 63
-0.06649999 0.122625 0.7507499 0 0 128 63
-0.07098 0.12758 0.75 0 0 128 63
-0.06743334 0.1272534 0.7515333 0 0 128 63
-0.07546667 0.1331 0.75 0 0 128 63
-0.0722 0.1322556 0.7506666 0 0 128 63
-0.06896 0.13232 0.7526 0 0 128 63
-0.08171429 0.1380714 0.7500001 0 0 128 63
-0.0771 0.1374667 0.7509333 0 0 128 63
-0.073 0.1368714 0.7524287 0 0 128 63
-0.0907 0.1436 0.75 0 0 128 63
-0.08704 0.14338 0.7504 0 0 128 63
-0.08284546 0.1423091 0.7516363 0 0 128 63
-0.0778111 0.1423 0.7525557 0 0 128 63
-0.0917 0.1478375 0.7507499 0 0 128 63
-0.08746 0.1475867 0.7514667 0 0 128 63
-0.08269 0.14674 0.7524001 0 0 128 63
-0.07913333 0.1465333 0.753 0 0 128 63
-0.0964 0.1536 0.75 0 0 128 63
-0.09283636 0.1525182 0.7512727 0 0 128 63
-0.08874001 0.15214 0.7528 0 0 128 63
-0.10215 0.1593 0.75 0 0 128 63
-0.09695715 0.1575143 0.7507857 0 0 128 63
-0.09293334 0.1565 0.7526667 0 0 128 63
-0.1114 0.1636 0.75 0 0 128 63
-0.1076 0.1626333 0.7515556 0 0 128 63
-0.1038 0.161425 0.75175 0 0 128 63
-0.09815 0.16195 0.7525 0 0 128 63
-0.12184 0.16874 0.75 0 0 128 63
-0.1173786 0.1677714 0.7515 0 0 128 63
-0.1128545 0.1670091 0.7520909 0 0 128 63
-0.1096667 0.167 0.7526667 0 0 128 63
-0.1229 0.1718143 0.752143 0 0 128 63
-0.11755 0.1713 0.7525 0 0 128 63
-0.1126 0.1704667 0.753 0 0 128 63
-0.03245 0.043625 0.7574999 0 0 128 63
-0.02816667 0.044 0.7580001 0 0 128 63
-0.0324 0.04681111 0.7562222 0 0 128 63
-0.0292 0.0465 0.757 0 0 128 63
-0.03586667 0.05316667 0.7580001 0 0 128 63
-0.0326 0.0524125 0.7564999 0 0 128 63
-0.0354 0.0556 0.758 0 0 128 63
-0.0332 0.0556 0.758 0 0 128 63
-0.05873334 0.07936667 0.7553334 0 0 128 63
-0.0586 0.08213334 0.7565 0 0 128 63
-0.05736667 0.08716667 0.7563334 0 0 128 63
-0.0559 0.0923 0.75725 0 0 128 63
-0.0541 0.0902 0.758 0 0 128 63
-0.0567125 0.0977625 0.75625 0 0 128 63
-0.0578 0.1028 0.757 0 0 128 63
-0.0588 0.1075857 0.7567143 0 0 128 63
-0.05891249 0.112225 0.7566249 0 0 128 63
-0.0617 0.1169 0.756 0 0 128 63
-0.0599 0.1162 0.758 0 0 128 63
-0.066375 0.1329375 0.7555 0 0 128 63
-0.07176667 0.1384667 0.756 0 0 128 63
-0.068875 0.1367 0.7574999 0 0 128 63
-0.07646666 0.1441 0.7553334 0 0 128 63
-0.07383334 0.1421 0.7573333 0 0 128 63
-0.07775 0.1473667 0.756 0 0 128 63
-0.0742 0.1462 0.756 0 0 128 63
-0.08684286 0.1536714 0.7554286 0 0 128 63
-0.08267778 0.1517 0.7564445 0 0 128 63
-0.09183334 0.1585 0.7553334 0 0 128 63
-0.08870001 0.1573143 0.7571428 0 0 128 63
-0.08374999 0.1552 0.758 0 0 128 63
-0.1057 0.1647 0.755 0 0 128 63
-0.1016222 0.1636667 0.7555556 0 0 128 63
-0.09698334 0.1634833 0.7561667 0 0 128 63
-0.09282223 0.1618667 0.7568889 0 0 128 63
-0.1071889 0.1676333 0.7554445 0 0 128 63
-0.10288 0.16797 0.7575999 0 0 128 63
-0.09736668 0.1661333 0.7573334 0 0 128 63
-0.09385 0.1653 0.758 0 0 128 63
-0.1215333 0.1742333 0.755 0 0 128 63
-0.117625 0.17375 0.7555 0 0 128 63
-0.1121286 0.1730857 0.7567143 0 0 128 63
-0.10822 0.17104 0.7566 0 0 128 63
-0.10395 0.1711 0.758 0 0 128 63
-0.1208333 0.1761 0.7566667 0 0 128 63
-0.11745 0.175825 0.7565 0 0 128 63
-0.1148 0.1754 0.758 0 0 128 63
-0.0564 0.08287143 0.7605714 0 0 128 63
-0.0545 0.08284999 0.763 0 0 128 63
-0.056225 0.087375 0.7614999 0 0 128 63
-0.0545 0.0894 0.763 0 0 128 63
-0.0557 0.0919 0.76 0 0 128 63
-0.0545 0.0923 0.763 0 0 128 63
-0.05655 0.102225 0.76125 0 0 128 63
-0.0574 0.10755 0.763 0 0 128 63
-0.0579 0.1122 0.76 0 0 128 63
-0.06163333 0.1191333 0.7613333 0 0 128 63
-0.0589 0.117 0.763 0 0 128 63
-0.06291667 0.12265 0.762 0 0 128 63
-0.06394286 0.1273857 0.7618572 0 0 128 63
-0.06299091 0.1322182 0.7616364 0 0 128 63
-0.0702 0.1397 0.76 0 0 128 63
-0.06741667 0.1386667 0.761 0 0 128 63
-0.063175 0.1368625 0.762375 0 0 128 63
-0.07154 0.14236 0.7618 0 0 128 63
-0.069 0.1417 0.763 0 0 128 63
-0.0761 0.1486 0.761 0 0 128 63
-0.0747 0.14725 0.7615 0 0 128 63
-0.0876 0.1585 0.76 0 0 128 63
-0.0847 0.1571 0.76 0 0 128 63
-0.09103334 0.1639667 0.7606666 0 0 128 63
-0.08852001 0.16126 0.7606 0 0 128 63
-0.1006 0.1686 0.76 0 0 128 63
-0.09745 0.16845 0.7607499 0 0 128 63
-0.09248 0.16777 0.7612001 0 0 128 63
-0.0889 0.1654667 0.763 0 0 128 63
-0.1068857 0.1739572 0.7605714 0 0 128 63
-0.1019143 0.1724857 0.7605714 0 0 128 63
-0.09726667 0.1720667 0.7622499 0 0 128 63
-0.09299999 0.1715 0.763 0 0 128 63
-0.1169 0.1785333 0.761 0 0 128 63
-0.1127143 0.1774 0.7621429 0 0 128 63
-0.1079833 0.1769833 0.7626667 0 0 128 63
-0.1024667 0.1756 0.763 0 0 128 63
-0.0974 0.1751 0.763 0 0 128 63
-0.1169667 0.1809 0.763 0 0 128 63
-0.0538 0.08256667 0.7670001 0 0 128 63
-0.05343333 0.08719999 0.7665556 0 0 128 63
-0.05254445 0.09251111 0.7674445 0 0 128 63
-0.054 0.09708333 0.7665 0 0 128 63
-0.0561 0.1042 0.765 0 0 128 63
-0.05435 0.1023333 0.7675 0 0 128 63
-0.05623333 0.1073667 0.7670001 0 0 128 63
-0.054525 0.107175 0.768 0 0 128 63
-0.04753333 0.109 0.768 0 0 128 63
-0.0563 0.11115 0.768 0 0 128 63
-0.0479 0.110775 0.768 0 0 128 63
-0.05826667 0.1182 0.7676667 0 0 128 63
-0.06146667 0.1229333 0.7653334 0 0 128 63
-0.05821111 0.1228333 0.7672223 0 0 128 63
-0.06123333 0.1276167 0.7656667 0 0 128 63
-0.05815715 0.1274714 0.7672857 0 0 128 63
-0.0605 0.1326 0.765 0 0 128 63
-0.0584 0.1321333 0.7665 0 0 128 63
-0.0612 0.13845 0.765 0 0 128 63
-0.05834999 0.1371 0.7657499 0 0 128 63
-0.06705715 0.1429572 0.7664286 0 0 128 63
-0.06332858 0.1417857 0.7668572 0 0 128 63
-0.07225001 0.1473834 0.7661667 0 0 128 63
-0.06895 0.1471667 0.7675 0 0 128 63
-0.0809 0.1537 0.765 0 0 128 63
-0.07774286 0.1522571 0.7670001 0 0 128 63
-0.07233334 0.1512 0.7670001 0 0 128 63
-0.0689 0.1517 0.7670001 0 0 128 63
-0.08595 0.1596 0.765 0 0 128 63
-0.08241667 0.1574667 0.7678334 0 0 128 63
-0.08640001 0.1629 0.7660001 0 0 128 63
-0.0841 0.1609 0.768 0 0 128 63
-0.08727 0.16766 0.7661 0 0 128 63
-0.08363333 0.167 0.768 0 0 128 63
-0.092 0.17334 0.7654 0 0 128 63
-0.08819091 0.1723455 0.7677274 0 0 128 63
-0.10635 0.1785 0.765 0 0 128 63
-0.1021333 0.17825 0.766 0 0 128 63
-0.09751111 0.1774111 0.765889 0 0 128 63
-0.09272222 0.1773889 0.7665556 0 0 128 63
-0.0898 0.1774333 0.7666667 0 0 128 63
-0.1164 0.1835333 0.7656667 0 0 128 63
-0.1122846 0.1825384 0.7659231 0 0 128 63
-0.1075616 0.1823692 0.7666924 0 0 128 63
-0.1029417 0.1824833 0.7675001 0 0 128 63
-0.097275 0.18105 0.768 0 0 128 63
-0.0929 0.1807 0.768 0 0 128 63
-0.0898 0.1804 0.767 0 0 128 63
-0.1141 0.1858 0.768 0 0 128 63
-0.10778 0.18706 0.7678 0 0 128 63
-0.103 0.1863 0.7670001 0 0 128 63
-0.0468 0.06933334 0.772 0 0 128 63
-0.042625 0.06836668 0.772 0 0 128 63
-0.0385 0.06886667 0.772 0 0 128 63
-0.0476625 0.0730625 0.77275 0 0 128 63
-0.0435875 0.072675 0.772625 0 0 128 63
-0.0551 0.0787 0.772 0 0 128 63
-0.052725 0.07845001 0.771625 0 0 128 63
-0.048225 0.077675 0.773 0 0 128 63
-0.0427 0.0773 0.773 0 0 128 63
-0.0368 0.0773 0.773 0 0 128 63
-0.03385 0.07805 0.773 0 0 128 63
-0.05164445 0.08216667 0.7711111 0 0 128 63
-0.0487 0.08232858 0.7728571 0 0 128 63
-0.04415 0.0802 0.773 0 0 128 63
-0.03095 0.0847 0.773 0 0 128 63
-0.05097499 0.087275 0.77 0 0 128 63
-0.04782223 0.08751111 0.7722222 0 0 128 63
-0.0449 0.08760001 0.773 0 0 128 63
-0.03095 0.0861 0.773 0 0 128 63
-0.0506 0.09263333 0.77 0 0 128 63
-0.04769167 0.09245001 0.7705001 0 0 128 63
-0.04372222 0.09293333 0.7724444 0 0 128 63
-0.05136667 0.09758334 0.7703333 0 0 128 63
-0.04777778 0.09777779 0.7717777 0 0 128 63
-0.04243571 0.09740715 0.7722144 0 0 128 63
-0.03801667 0.09838333 0.7728333 0 0 128 63
-0.0518 0.10272 0.7704 0 0 128 63
-0.04773334 0.1028 0.7710001 0 0 128 63
-0.04280715 0.1025429 0.7714287 0 0 128 63
-0.03753333 0.1022444 0.7723333 0 0 128 63
-0.0346 0.1038 0.773 0 0 128 63
-0.0518875 0.1079875 0.77 0 0 128 63
-0.04766667 0.10705 0.77 0 0 128 63
-0.04232858 0.1074143 0.7702858 0 0 128 63
-0.037475 0.107275 0.7715 0 0 128 63
-0.03253334 0.10758 0.7726 0 0 128 63
-0.0565 0.1137 0.77 0 0 128 63
-0.0528 0.1122 0.77 0 0 128 63
-0.04738 0.1131 0.77 0 0 128 63
-0.04253333 0.112225 0.7701668 0 0 128 63
