# .PCD v.7 - Point Cloud Data file format
VERSION .7
FIELDS x y z _
SIZE 4 4 4 1
TYPE F F F U
COUNT 1 1 1 4
WIDTH 1121
HEIGHT 1
VIEWPOINT 0 0 0 1 0 0 0
POINTS 1121
DATA ascii
-0.04559955 0.06894174 0.7453969 0 0 128 63
-0.0399313 0.06712539 0.7495559 0 0 128 63
-0.03729394 0.0658657 0.7517684 0 0 128 63
-0.0363704 0.06717779 0.7569918 0 0 128 63
-0.08235207 0.07394065 0.7238581 0 0 128 63
-0.07875487 0.07385667 0.7264163 0 0 128 63
-0.07564193 0.07318485 0.7286758 0 0 128 63
-0.07186076 0.07340388 0.7312391 0 0 128 63
-0.06702462 0.07221465 0.7345555 0 0 128 63
-0.06241912 0.07280853 0.7365491 0 0 128 63
-0.05803826 0.07311857 0.7391589 0 0 128 63
-0.0542157 0.07265651 0.7421756 0 0 128 63
-0.04969788 0.07216959 0.7448034 0 0 128 63
-0.04621118 0.07072634 0.7482892 0 0 128 63
-0.03914988 0.06962882 0.7499201 0 0 128 63
-0.03579471 0.06810781 0.7536442 0 0 128 63
-0.03617692 0.06911814 0.7569817 0 0 128 63
-0.07612106 0.07752177 0.7280064 0 0 128 63
-0.0598737 0.07596277 0.7396509 0 0 128 63
-0.05144614 0.0751541 0.7456909 0 0 128 63
-0.110489 0.03744211 0.7122541 0 0 128 63
-0.1050408 0.0376404 0.7129771 0 0 128 63
-0.1020205 0.03777111 0.7138814 0 0 128 63
-0.1090603 0.04063217 0.7135836 0 0 128 63
-0.1051227 0.04230986 0.7141438 0 0 128 63
-0.1006335 0.04149589 0.7148554 0 0 128 63
-0.1054232 0.04705034 0.7156763 0 0 128 63
-0.1005868 0.04707569 0.7166485 0 0 128 63
-0.09565696 0.04826103 0.7175988 0 0 128 63
-0.1006535 0.0518955 0.7183847 0 0 128 63
-0.09498999 0.05252472 0.7192836 0 0 128 63
-0.09055749 0.0524731 0.7208965 0 0 128 63
-0.09947279 0.05678994 0.7191576 0 0 128 63
-0.09535995 0.05626167 0.72058 0 0 128 63
-0.08987388 0.05604757 0.7217798 0 0 128 63
-0.09893015 0.06129531 0.7190467 0 0 128 63
-0.09491351 0.06078965 0.7205526 0 0 128 63
-0.0901126 0.06059526 0.722069 0 0 128 63
-0.08659533 0.05914501 0.7232004 0 0 128 63
-0.09797874 0.06644116 0.7194843 0 0 128 63
-0.09415951 0.06590766 0.7203148 0 0 128 63
-0.08914635 0.06528375 0.7215943 0 0 128 63
-0.08530465 0.06675637 0.7235377 0 0 128 63
-0.0974628 0.07161543 0.7194571 0 0 128 63
-0.0938361 0.07112713 0.7204548 0 0 128 63
-0.08862892 0.07041147 0.7217207 0 0 128 63
-0.08568445 0.07005768 0.7230175 0 0 128 63
-0.09747359 0.07684024 0.7190526 0 0 128 63
-0.09403965 0.07647066 0.7210561 0 0 128 63
-0.08920285 0.07603469 0.7233432 0 0 128 63
-0.08419099 0.07550472 0.7241237 0 0 128 63
-0.08032128 0.07620338 0.7263553 0 0 128 63
-0.07576716 0.07576638 0.7296192 0 0 128 63
-0.07177696 0.07525291 0.7324889 0 0 128 63
-0.06850103 0.07477532 0.7348491 0 0 128 63
-0.04730839 0.07318528 0.7517241 0 0 128 63
-0.04581687 0.07239398 0.7543983 0 0 128 63
-0.03462321 0.06946772 0.7592857 0 0 128 63
-0.03291681 0.07065152 0.7616348 0 0 128 63
-0.09649542 0.0813172 0.7194064 0 0 128 63
-0.09370497 0.08157182 0.7213666 0 0 128 63
-0.08889946 0.08114107 0.7236567 0 0 128 63
-0.08362654 0.08041467 0.724919 0 0 128 63
-0.08014217 0.08010705 0.7277214 0 0 128 63
-0.07505617 0.07963024 0.7299939 0 0 128 63
-0.0712975 0.0791553 0.7328835 0 0 128 63
-0.06817943 0.07908441 0.7362242 0 0 128 63
-0.06398579 0.07853672 0.7390716 0 0 128 63
-0.05991861 0.07832336 0.7422745 0 0 128 63
-0.0555582 0.07768129 0.7445781 0 0 128 63
-0.05094764 0.07748246 0.7474471 0 0 128 63
-0.048291 0.07716434 0.7518457 0 0 128 63
-0.04483429 0.0770486 0.7550567 0 0 128 63
-0.0923247 0.08581428 0.7220234 0 0 128 63
-0.08890221 0.08570547 0.7232313 0 0 128 63
-0.08418462 0.08577214 0.7250374 0 0 128 63
-0.07980868 0.08532554 0.7278687 0 0 128 63
-0.07456115 0.08466168 0.7297989 0 0 128 63
-0.07102636 0.08442271 0.7334764 0 0 128 63
-0.068252 0.08371508 0.7379297 0 0 128 63
-0.06463945 0.08345751 0.7415357 0 0 128 63
-0.06067365 0.0832127 0.744563 0 0 128 63
-0.05650413 0.08247681 0.746583 0 0 128 63
-0.05277321 0.08197753 0.7491448 0 0 128 63
-0.04914755 0.08091019 0.7525351 0 0 128 63
-0.0459888 0.08038867 0.7553069 0 0 128 63
-0.09190765 0.09106334 0.7219205 0 0 128 63
-0.088384 0.09040703 0.723815 0 0 128 63
-0.08365908 0.09035487 0.7257786 0 0 128 63
-0.07972205 0.08994149 0.7281936 0 0 128 63
-0.07544744 0.0895135 0.7310537 0 0 128 63
-0.07120833 0.08908999 0.7340933 0 0 128 63
-0.06849298 0.08841144 0.7385791 0 0 128 63
-0.06437042 0.08802922 0.7416862 0 0 128 63
-0.061142 0.08663116 0.7440827 0 0 128 63
-0.09214124 0.09626935 0.7213593 0 0 128 63
-0.08784553 0.09545878 0.7239308 0 0 128 63
-0.08353874 0.09495868 0.7260261 0 0 128 63
-0.07942259 0.0945036 0.7282896 0 0 128 63
-0.07443345 0.0938544 0.7304964 0 0 128 63
-0.07087591 0.09363833 0.7341882 0 0 128 63
-0.06806827 0.09360783 0.7386391 0 0 128 63
-0.06385449 0.0932035 0.7416592 0 0 128 63
-0.0611994 0.09316638 0.7435455 0 0 128 63
-0.0914599 0.09982042 0.7215728 0 0 128 63
-0.08736172 0.09959042 0.7244976 0 0 128 63
-0.08346537 0.1002666 0.7271081 0 0 128 63
-0.07935813 0.09965779 0.7290297 0 0 128 63
-0.07452691 0.09921831 0.7310974 0 0 128 63
-0.07096365 0.09900801 0.7347929 0 0 128 63
-0.06727439 0.09875928 0.7383503 0 0 128 63
-0.06313518 0.09848627 0.7412767 0 0 128 63
-0.06075951 0.09757777 0.7435224 0 0 128 63
-0.08198473 0.1041852 0.727963 0 0 128 63
-0.07932413 0.10393 0.7298698 0 0 128 63
-0.07524678 0.1046581 0.7327071 0 0 128 63
-0.0711953 0.1044429 0.7355208 0 0 128 63
-0.06726381 0.1037271 0.738441 0 0 128 63
-0.06297892 0.1032154 0.7415196 0 0 128 63
-0.07405454 0.1093011 0.7332001 0 0 128 63
-0.0706276 0.1093741 0.7356257 0 0 128 63
-0.06723076 0.1073403 0.7381899 0 0 128 63
-0.1173433 0.03501699 0.7118195 0 0 128 63
-0.1166083 0.03851656 0.7128122 0 0 128 63
-0.1128464 0.03980285 0.7134175 0 0 128 63
-0.1170338 0.04197873 0.7133529 0 0 128 63
-0.1117941 0.0429424 0.714608 0 0 128 63
-0.1109283 0.04757754 0.715767 0 0 128 63
-0.1072861 0.04934851 0.716637 0 0 128 63
-0.1106566 0.05250809 0.7166383 0 0 128 63
-0.1062038 0.05245723 0.7174143 0 0 128 63
-0.1107415 0.05755179 0.7172477 0 0 128 63
-0.1053475 0.0568144 0.7175217 0 0 128 63
-0.1026677 0.05655685 0.7193656 0 0 128 63
-0.1098923 0.06073518 0.7176082 0 0 128 63
-0.1054935 0.06202851 0.7182556 0 0 128 63
-0.1021518 0.06173113 0.7193385 0 0 128 63
-0.1053769 0.06750435 0.7192737 0 0 128 63
-0.1011066 0.06687973 0.7196888 0 0 128 63
-0.1041247 0.07260239 0.7183415 0 0 128 63
-0.1005832 0.07212862 0.7196612 0 0 128 63
-0.1083247 0.07645699 0.7175258 0 0 128 63
-0.1041492 0.07716377 0.7181529 0 0 128 63
-0.1005941 0.07735345 0.7192566 0 0 128 63
-0.1039651 0.08189064 0.7186704 0 0 128 63
-0.0996159 0.0818304 0.7196105 0 0 128 63
-0.1042983 0.08661865 0.7196103 0 0 128 63
-0.09910658 0.08646545 0.7204387 0 0 128 63
-0.09545991 0.08654377 0.7222006 0 0 128 63
-0.0533255 0.08409004 0.7530967 0 0 128 63
-0.04981765 0.08227579 0.7549042 0 0 128 63
-0.04840347 0.08234744 0.7571303 0 0 128 63
-0.09820107 0.09120683 0.7211301 0 0 128 63
-0.09468558 0.09099115 0.722412 0 0 128 63
-0.06115258 0.08871971 0.7467418 0 0 128 63
-0.05896127 0.08723326 0.7502521 0 0 128 63
-0.05538505 0.08577175 0.7535554 0 0 128 63
-0.09715036 0.09750599 0.721397 0 0 128 63
-0.09485629 0.0949689 0.7219889 0 0 128 63
-0.06087381 0.09321438 0.7466077 0 0 128 63
-0.05961147 0.09413981 0.7503892 0 0 128 63
-0.09800074 0.1013544 0.722037 0 0 128 63
-0.09367195 0.1023247 0.7226796 0 0 128 63
-0.08938035 0.1023335 0.7253139 0 0 128 63
-0.08574435 0.1028009 0.7278578 0 0 128 63
-0.06332016 0.09673132 0.7442269 0 0 128 63
-0.06038344 0.09845199 0.7461796 0 0 128 63
-0.05792201 0.09831986 0.7502983 0 0 128 63
-0.09682313 0.105658 0.7234668 0 0 128 63
-0.09361318 0.1063431 0.7243098 0 0 128 63
-0.08900574 0.1058377 0.7259277 0 0 128 63
-0.08492246 0.1057106 0.7282199 0 0 128 63
-0.08003977 0.1062718 0.7316411 0 0 128 63
-0.06788462 0.1051054 0.7403527 0 0 128 63
-0.06040147 0.1030847 0.746429 0 0 128 63
-0.05757472 0.1025953 0.7504259 0 0 128 63
-0.09330264 0.1110998 0.7255508 0 0 128 63
-0.08925202 0.1105994 0.7265429 0 0 128 63
-0.08447263 0.1100417 0.7290545 0 0 128 63
-0.07985416 0.1095388 0.7317549 0 0 128 63
-0.07608435 0.1103324 0.7341386 0 0 128 63
-0.07210919 0.1107346 0.736928 0 0 128 63
-0.06785157 0.1087187 0.7401016 0 0 128 63
-0.06418258 0.1082303 0.7435606 0 0 128 63
-0.06090859 0.1079453 0.7473891 0 0 128 63
-0.05811629 0.1071113 0.7501135 0 0 128 63
-0.09170315 0.1143418 0.7264391 0 0 128 63
-0.08826384 0.1138546 0.7276876 0 0 128 63
-0.0851666 0.1155682 0.7307942 0 0 128 63
-0.07979175 0.1148486 0.7321635 0 0 128 63
-0.07539639 0.1145215 0.7345316 0 0 128 63
-0.0719344 0.114361 0.7370836 0 0 128 63
-0.06774786 0.1136328 0.740109 0 0 128 63
-0.0635803 0.11324 0.7432489 0 0 128 63
-0.05982453 0.1129845 0.7467773 0 0 128 63
-0.05777034 0.1121908 0.750675 0 0 128 63
-0.0838888 0.1198956 0.7315608 0 0 128 63
-0.08081624 0.1197765 0.7326576 0 0 128 63
-0.07511112 0.1195154 0.7368339 0 0 128 63
-0.07192412 0.1194633 0.7394116 0 0 128 63
-0.06802529 0.1187558 0.7417673 0 0 128 63
-0.06356129 0.1183312 0.7442103 0 0 128 63
-0.06048056 0.1184459 0.7475752 0 0 128 63
-0.05819637 0.1164509 0.750049 0 0 128 63
-0.06351489 0.122185 0.7458403 0 0 128 63
-0.06084076 0.1219284 0.7477569 0 0 128 63
-0.1282727 0.03513421 0.7108135 0 0 128 63
-0.1233852 0.03528655 0.7122218 0 0 128 63
-0.1269833 0.03903441 0.7125067 0 0 128 63
-0.1219833 0.03893485 0.7127343 0 0 128 63
-0.1262329 0.04436966 0.7126646 0 0 128 63
-0.1217208 0.04420256 0.7129298 0 0 128 63
-0.1175197 0.04471038 0.7152574 0 0 128 63
-0.126295 0.04814222 0.7128661 0 0 128 63
-0.1230804 0.049103 0.7144594 0 0 128 63
-0.117612 0.04842987 0.7156259 0 0 128 63
-0.1139807 0.0493804 0.716799 0 0 128 63
-0.1226336 0.0533722 0.7151346 0 0 128 63
-0.1175071 0.05297762 0.7160714 0 0 128 63
-0.1136582 0.05261431 0.716782 0 0 128 63
-0.1205252 0.05884923 0.7163506 0 0 128 63
-0.1168647 0.05836009 0.7166301 0 0 128 63
-0.1131349 0.05786322 0.7167546 0 0 128 63
-0.1201953 0.06215778 0.7163333 0 0 128 63
-0.1168487 0.06372057 0.717053 0 0 128 63
-0.1118402 0.06319512 0.717603 0 0 128 63
-0.1091816 0.06469169 0.7190403 0 0 128 63
-0.1167506 0.06822738 0.7175481 0 0 128 63
-0.1116544 0.06835826 0.7180312 0 0 128 63
-0.1088493 0.06802511 0.7190228 0 0 128 63
-0.1157649 0.07257947 0.7181932 0 0 128 63
-0.1112523 0.07292153 0.718038 0 0 128 63
-0.1084623 0.07190582 0.7190025 0 0 128 63
-0.1153367 0.07806611 0.7185714 0 0 128 63
-0.111107 0.07766038 0.7181409 0 0 128 63
-0.1149894 0.0815488 0.7185531 0 0 128 63
-0.1106185 0.08283673 0.7182803 0 0 128 63
-0.1070479 0.08253576 0.7191982 0 0 128 63
-0.03589898 0.07363901 0.7715765 0 0 128 63
-0.03496033 0.07506867 0.7745906 0 0 128 63
-0.1103317 0.0881796 0.7188969 0 0 128 63
-0.1053515 0.08769725 0.7200095 0 0 128 63
-0.05206394 0.084352 0.7583737 0 0 128 63
-0.05204242 0.0835453 0.7630568 0 0 128 63
-0.1094778 0.09305485 0.7189786 0 0 128 63
-0.1047795 0.09277834 0.7208482 0 0 128 63
-0.1017914 0.09337765 0.7223493 0 0 128 63
-0.05952364 0.08973017 0.7525706 0 0 128 63
-0.0567297 0.08827856 0.7563009 0 0 128 63
-0.05420548 0.08650579 0.7594547 0 0 128 63
-0.05191347 0.08483887 0.76305 0 0 128 63
-0.113806 0.09697263 0.7182208 0 0 128 63
-0.1090465 0.09764104 0.7189872 0 0 128 63
-0.1044861 0.09738658 0.7209793 0 0 128 63
-0.1011781 0.09681813 0.7226284 0 0 128 63
-0.05922443 0.0927407 0.7531684 0 0 128 63
-0.05832997 0.09318691 0.7573178 0 0 128 63
-0.1091035 0.1027367 0.7194299 0 0 128 63
-0.1038642 0.1019577 0.7208002 0 0 128 63
-0.1007858 0.101658 0.7221878 0 0 128 63
-0.0577037 0.09606744 0.7531755 0 0 128 63
-0.05651286 0.0976574 0.7568171 0 0 128 63
-0.05489862 0.09838566 0.7599031 0 0 128 63
-0.1081316 0.1077164 0.7202017 0 0 128 63
-0.1034042 0.1071965 0.7208309 0 0 128 63
-0.09948972 0.1068579 0.7227123 0 0 128 63
-0.09623805 0.1083541 0.7249054 0 0 128 63
-0.05698439 0.1032816 0.7531377 0 0 128 63
-0.0551146 0.102613 0.7558202 0 0 128 63
-0.05361676 0.1026479 0.7602158 0 0 128 63
-0.107614 0.1120331 0.7214693 0 0 128 63
-0.1039778 0.1123764 0.7219344 0 0 128 63
-0.09887615 0.1119875 0.7232184 0 0 128 63
-0.09544781 0.1117082 0.7252111 0 0 128 63
-0.05745542 0.1085185 0.7526786 0 0 128 63
-0.05547249 0.1079659 0.756557 0 0 128 63
-0.05398253 0.1075733 0.759855 0 0 128 63
-0.1036289 0.116956 0.7235129 0 0 128 63
-0.09853819 0.1170709 0.7240445 0 0 128 63
-0.09425953 0.1169807 0.7262268 0 0 128 63
-0.08974603 0.1168042 0.7290578 0 0 128 63
-0.07923254 0.1172703 0.7362919 0 0 128 63
-0.05747277 0.1137144 0.7524455 0 0 128 63
-0.05543137 0.112704 0.7573979 0 0 128 63
-0.05371794 0.1102268 0.7598411 0 0 128 63
-0.0297401 0.1119443 0.7767207 0 0 128 63
-0.02763322 0.1117421 0.7782307 0 0 128 63
-0.09892526 0.1220957 0.7262546 0 0 128 63
-0.09452787 0.1216239 0.7275673 0 0 128 63
-0.08971134 0.1211191 0.7295894 0 0 128 63
-0.08597264 0.1208906 0.7312353 0 0 128 63
-0.0800181 0.1200581 0.7355227 0 0 128 63
-0.07789508 0.1200176 0.7370319 0 0 128 63
-0.07462189 0.1208462 0.7392911 0 0 128 63
-0.05984056 0.1181219 0.749984 0 0 128 63
-0.05793706 0.1182677 0.7529985 0 0 128 63
-0.05600601 0.1172541 0.7570698 0 0 128 63
-0.02964124 0.1150691 0.7765535 0 0 128 63
-0.02656171 0.1148645 0.7783698 0 0 128 63
-0.02319992 0.1150895 0.7811216 0 0 128 63
-0.09844765 0.1256897 0.7269345 0 0 128 63
-0.09469286 0.1256357 0.7289004 0 0 128 63
-0.08974716 0.1255627 0.7304705 0 0 128 63
-0.08523628 0.1254238 0.7322638 0 0 128 63
-0.08128417 0.1246751 0.7346015 0 0 128 63
-0.07733908 0.124613 0.7377324 0 0 128 63
-0.07278419 0.1242146 0.7403388 0 0 128 63
-0.06855947 0.1236738 0.7434588 0 0 128 63
-0.06473744 0.1240068 0.746336 0 0 128 63
-0.06082895 0.1234616 0.7496961 0 0 128 63
-0.05826363 0.1231066 0.7542649 0 0 128 63
-0.05601001 0.1216445 0.7567334 0 0 128 63
-0.02860248 0.1201478 0.7759218 0 0 128 63
-0.02519569 0.1198044 0.7773512 0 0 128 63
-0.0216631 0.1196739 0.7813261 0 0 128 63
-0.01911974 0.1208203 0.7835806 0 0 128 63
-0.08965924 0.1296482 0.7328683 0 0 128 63
-0.08605501 0.1301813 0.7344021 0 0 128 63
-0.08169344 0.1300258 0.7368156 0 0 128 63
-0.07737991 0.1297306 0.7393211 0 0 128 63
-0.07294229 0.1293526 0.7413924 0 0 128 63
-0.06888935 0.1291142 0.7444955 0 0 128 63
-0.06476557 0.1287511 0.7476789 0 0 128 63
-0.06113276 0.1280747 0.7511461 0 0 128 63
-0.05772755 0.1273305 0.7556972 0 0 128 63
-0.02792072 0.1235168 0.7759038 0 0 128 63
-0.02370238 0.1239443 0.7766526 0 0 128 63
-0.02109227 0.1244317 0.7809621 0 0 128 63
-0.01766947 0.1246994 0.7843148 0 0 128 63
-0.01522738 0.1240297 0.7860981 0 0 128 63
-0.0762589 0.1335862 0.7420756 0 0 128 63
-0.07334939 0.1337758 0.7441251 0 0 128 63
-0.0702233 0.1336969 0.7461954 0 0 128 63
-0.06574997 0.1334924 0.7494015 0 0 128 63
-0.06300941 0.1333445 0.7514932 0 0 128 63
-0.02417701 0.1299951 0.7792959 0 0 128 63
-0.02143842 0.1303853 0.781209 0 0 128 63
-0.06463879 0.1364895 0.7500984 0 0 128 63
-0.06291309 0.1369769 0.7512856 0 0 128 63
-0.1393353 0.0322756 0.7099391 0 0 128 63
-0.1381119 0.03446711 0.7103333 0 0 128 63
-0.1345805 0.03525178 0.7110759 0 0 128 63
-0.1332887 0.03935366 0.7133837 0 0 128 63
-0.1300839 0.04094357 0.7133867 0 0 128 63
-0.1484399 0.04710635 0.701125 0 0 128 63
-0.1460147 0.04722523 0.7028365 0 0 128 63
-0.1423527 0.04675665 0.70547 0 0 128 63
-0.1325385 0.04629017 0.7136961 0 0 128 63
-0.1301619 0.04431958 0.7136891 0 0 128 63
-0.1479911 0.05043182 0.7018049 0 0 128 63
-0.1455217 0.05082059 0.7031178 0 0 128 63
-0.1415217 0.05042861 0.7056271 0 0 128 63
-0.1380977 0.05188536 0.7090815 0 0 128 63
-0.1329625 0.05005654 0.7128635 0 0 128 63
-0.129202 0.04989387 0.7137418 0 0 128 63
-0.144472 0.05456556 0.7041921 0 0 128 63
-0.1413456 0.05436451 0.7061328 0 0 128 63
-0.1376492 0.05436995 0.7093201 0 0 128 63
-0.1330687 0.0536161 0.712588 0 0 128 63
-0.1277359 0.05411424 0.7140519 0 0 128 63
-0.1243688 0.05528153 0.7151234 0 0 128 63
-0.1280704 0.05886905 0.7156029 0 0 128 63
-0.1238995 0.05913618 0.7160568 0 0 128 63
-0.1225765 0.06406479 0.7171315 0 0 128 63
-0.122285 0.06858814 0.7178428 0 0 128 63
-0.1190877 0.07009451 0.7177445 0 0 128 63
-0.1221416 0.07425772 0.7189471 0 0 128 63
-0.1191593 0.07384001 0.7188131 0 0 128 63
-0.1215643 0.08083035 0.7184476 0 0 128 63
-0.118361 0.07887217 0.718958 0 0 128 63
-0.1212973 0.08390109 0.7181991 0 0 128 63
-0.1171625 0.08373253 0.7188931 0 0 128 63
-0.04814729 0.0779147 0.7695237 0 0 128 63
-0.04493588 0.07731375 0.7734855 0 0 128 63
-0.04101902 0.07688446 0.7756824 0 0 128 63
-0.03678522 0.07688662 0.7761061 0 0 128 63
-0.1199055 0.08836861 0.7182328 0 0 128 63
-0.1172951 0.08821392 0.7192032 0 0 128 63
-0.05143905 0.08257478 0.7657698 0 0 128 63
-0.04900923 0.08131358 0.7697335 0 0 128 63
-0.04468086 0.0808555 0.7733973 0 0 128 63
-0.04015461 0.08071961 0.7760517 0 0 128 63
-0.03617018 0.08036052 0.7785512 0 0 128 63
-0.03346238 0.08068173 0.781096 0 0 128 63
-0.1201488 0.09406339 0.718154 0 0 128 63
-0.1159647 0.09311146 0.7186208 0 0 128 63
-0.05457041 0.08835255 0.7621267 0 0 128 63
-0.05208054 0.08747128 0.7663291 0 0 128 63
-0.04981068 0.0864041 0.7693366 0 0 128 63
-0.03839794 0.08595981 0.7770571 0 0 128 63
-0.03564349 0.08564261 0.7785235 0 0 128 63
-0.03190267 0.08528824 0.7812811 0 0 128 63
-0.02947658 0.0871318 0.7837065 0 0 128 63
-0.1199084 0.09884974 0.7183118 0 0 128 63
-0.1157449 0.09903206 0.7189002 0 0 128 63
-0.05751941 0.09239514 0.7597274 0 0 128 63
-0.05507049 0.09264968 0.7623667 0 0 128 63
-0.05195644 0.09258814 0.7667302 0 0 128 63
-0.04958639 0.0922091 0.7690547 0 0 128 63
-0.03888813 0.09217307 0.7765239 0 0 128 63
-0.03484657 0.09085418 0.778181 0 0 128 63
-0.03101072 0.09047931 0.7808284 0 0 128 63
-0.02797139 0.09022067 0.7833112 0 0 128 63
-0.1194615 0.1038029 0.7186036 0 0 128 63
-0.1154847 0.1038191 0.7190691 0 0 128 63
-0.0539968 0.09768261 0.7623917 0 0 128 63
-0.0510051 0.09759478 0.766165 0 0 128 63
-0.04806003 0.09773417 0.7688987 0 0 128 63
-0.04362628 0.09783205 0.7728556 0 0 128 63
-0.03837651 0.09633489 0.7760795 0 0 128 63
-0.034428 0.09616445 0.7782792 0 0 128 63
-0.03076756 0.09568097 0.7809129 0 0 128 63
-0.02772704 0.09489575 0.7835388 0 0 128 63
-0.1145051 0.1086252 0.7196746 0 0 128 63
-0.1107895 0.1098328 0.7206122 0 0 128 63
-0.05234939 0.1031991 0.7625743 0 0 128 63
-0.05055526 0.1021915 0.7662861 0 0 128 63
-0.04700908 0.1017484 0.7698748 0 0 128 63
-0.04247633 0.1013838 0.7734016 0 0 128 63
-0.03828254 0.1009187 0.7758856 0 0 128 63
-0.03396416 0.1008163 0.7782549 0 0 128 63
-0.03012764 0.1002555 0.7811137 0 0 128 63
-0.02748871 0.09986654 0.7841492 0 0 128 63
-0.1145393 0.1134361 0.7205819 0 0 128 63
-0.1098934 0.1133436 0.7213323 0 0 128 63
-0.05312574 0.1078046 0.7627656 0 0 128 63
-0.05016464 0.107017 0.7662911 0 0 128 63
-0.0462518 0.1067331 0.7697794 0 0 128 63
-0.04209253 0.1063732 0.7730645 0 0 128 63
-0.03764933 0.1056596 0.7752726 0 0 128 63
-0.03304967 0.1053008 0.776925 0 0 128 63
-0.02940688 0.1049466 0.7805598 0 0 128 63
-0.02683374 0.1049404 0.7842284 0 0 128 63
-0.0224869 0.1025342 0.787495 0 0 128 63
-0.1138716 0.1180949 0.7211761 0 0 128 63
-0.1097774 0.1181173 0.7224019 0 0 128 63
-0.1060108 0.1178294 0.7233948 0 0 128 63
-0.05319652 0.1126211 0.7625678 0 0 128 63
-0.04977438 0.1123364 0.7663943 0 0 128 63
-0.04559603 0.1119555 0.7696175 0 0 128 63
-0.0411087 0.1114982 0.7725286 0 0 128 63
-0.03673115 0.1109213 0.7745007 0 0 128 63
-0.03241771 0.1102128 0.776345 0 0 128 63
-0.02794886 0.1094616 0.7795976 0 0 128 63
-0.02502024 0.1100246 0.7834278 0 0 128 63
-0.02021888 0.1111376 0.7847649 0 0 128 63
-0.1093836 0.1232844 0.723413 0 0 128 63
-0.1049557 0.1225308 0.7246635 0 0 128 63
-0.1015736 0.1232887 0.7261277 0 0 128 63
-0.05513641 0.1186111 0.7602452 0 0 128 63
-0.05327326 0.1171562 0.7638738 0 0 128 63
-0.04978803 0.1166061 0.7670581 0 0 128 63
-0.04497656 0.117232 0.7695026 0 0 128 63
-0.03919542 0.1162987 0.7709107 0 0 128 63
-0.03543413 0.1159378 0.7736065 0 0 128 63
-0.03231481 0.1156955 0.7758378 0 0 128 63
-0.02217215 0.1139943 0.7831622 0 0 128 63
-0.02000064 0.1150506 0.7859626 0 0 128 63
-0.1093999 0.1277482 0.7234309 0 0 128 63
-0.1041615 0.1271209 0.7244921 0 0 128 63
-0.1000846 0.1281345 0.726816 0 0 128 63
-0.09562048 0.1284615 0.729958 0 0 128 63
-0.09262475 0.1287337 0.7320625 0 0 128 63
-0.05568913 0.1230381 0.7602948 0 0 128 63
-0.05334398 0.1201619 0.7642654 0 0 128 63
-0.04878595 0.1206119 0.7674646 0 0 128 63
-0.04439557 0.121737 0.7696003 0 0 128 63
-0.03927723 0.1211087 0.771511 0 0 128 63
-0.03526995 0.1208445 0.7743328 0 0 128 63
-0.03176937 0.1204473 0.7761707 0 0 128 63
-0.01868665 0.1194262 0.7861671 0 0 128 63
-0.01592582 0.1213741 0.7870328 0 0 128 63
-0.1080913 0.1312082 0.7245877 0 0 128 63
-0.1047211 0.1323293 0.7261768 0 0 128 63
-0.1007861 0.1324436 0.7285594 0 0 128 63
-0.09642121 0.13209 0.7313664 0 0 128 63
-0.09179392 0.131583 0.7330496 0 0 128 63
-0.08850035 0.1323563 0.7347132 0 0 128 63
-0.05883053 0.1289668 0.7560188 0 0 128 63
-0.05599108 0.1275092 0.7601094 0 0 128 63
-0.04317504 0.1245104 0.7711489 0 0 128 63
-0.04012236 0.1243743 0.7725878 0 0 128 63
-0.0352293 0.1244484 0.7762639 0 0 128 63
-0.03154585 0.1255345 0.7779389 0 0 128 63
-0.02795118 0.1258933 0.7781585 0 0 128 63
-0.01745805 0.1228271 0.7858354 0 0 128 63
-0.09592924 0.1348966 0.7329353 0 0 128 63
-0.09217182 0.1357301 0.7350909 0 0 128 63
-0.08750591 0.1358057 0.737708 0 0 128 63
-0.08349755 0.1352935 0.7398346 0 0 128 63
-0.07920948 0.1352243 0.7418423 0 0 128 63
-0.07463551 0.1355608 0.7443056 0 0 128 63
-0.07028204 0.1359324 0.7473658 0 0 128 63
-0.06706765 0.1356239 0.7496696 0 0 128 63
-0.06178901 0.1331448 0.7536027 0 0 128 63
-0.05920967 0.1329769 0.757165 0 0 128 63
-0.05705386 0.1315995 0.7603549 0 0 128 63
-0.03034836 0.1292034 0.7792775 0 0 128 63
-0.02621487 0.1296096 0.7792835 0 0 128 63
-0.02136061 0.1281993 0.7826588 0 0 128 63
-0.01910359 0.1276562 0.7843012 0 0 128 63
-0.0862771 0.1393952 0.7394409 0 0 128 63
-0.08379355 0.1394833 0.741196 0 0 128 63
-0.07913932 0.1399367 0.743235 0 0 128 63
-0.07497564 0.1400485 0.7459499 0 0 128 63
-0.07009512 0.1394566 0.7477976 0 0 128 63
-0.06622317 0.1389816 0.7500136 0 0 128 63
-0.06165352 0.1385846 0.7532855 0 0 128 63
-0.05993727 0.137951 0.7568325 0 0 128 63
-0.025098 0.1329027 0.7796501 0 0 128 63
-0.07434198 0.1442271 0.7475407 0 0 128 63
-0.07064629 0.1441399 0.7494321 0 0 128 63
-0.06708461 0.1436921 0.7520279 0 0 128 63
-0.06293392 0.1436127 0.7546567 0 0 128 63
-0.06053039 0.1427982 0.7568331 0 0 128 63
-0.07060617 0.147234 0.7499626 0 0 128 63
-0.06266478 0.146472 0.7556541 0 0 128 63
-0.1452414 0.0329685 0.7106103 0 0 128 63
-0.14203 0.03254702 0.7104637 0 0 128 63
-0.1450516 0.03586571 0.7109343 0 0 128 63
-0.1412834 0.03638307 0.7111625 0 0 128 63
-0.1411671 0.04047706 0.7141587 0 0 128 63
-0.1369158 0.0404182 0.7142308 0 0 128 63
-0.1442797 0.04775677 0.7126259 0 0 128 63
-0.141298 0.04571072 0.7145281 0 0 128 63
-0.1361968 0.0446051 0.7148024 0 0 128 63
-0.1560443 0.05355046 0.7026114 0 0 128 63
-0.1518499 0.05203496 0.7031087 0 0 128 63
-0.1426475 0.04949274 0.7105808 0 0 128 63
-0.1398142 0.04986496 0.7124601 0 0 128 63
-0.1362553 0.04947464 0.7136837 0 0 128 63
-0.1563943 0.05627611 0.7030773 0 0 128 63
-0.1528608 0.05695793 0.7047226 0 0 128 63
-0.1479072 0.05726894 0.7066496 0 0 128 63
-0.1422881 0.05730046 0.708751 0 0 128 63
-0.1382689 0.05713971 0.7112634 0 0 128 63
-0.1354451 0.05654266 0.714131 0 0 128 63
-0.1324129 0.05644038 0.7160851 0 0 128 63
-0.147455 0.06021678 0.7094266 0 0 128 63
-0.143714 0.06027201 0.7106023 0 0 128 63
-0.1395357 0.06038148 0.7131896 0 0 128 63
-0.135581 0.06041389 0.7159926 0 0 128 63
-0.1319186 0.05981172 0.7167938 0 0 128 63
-0.1616118 0.06950489 0.6974496 0 0 128 63
-0.1352502 0.06446609 0.716943 0 0 128 63
-0.1304919 0.06443515 0.7184784 0 0 128 63
-0.1261484 0.06588177 0.7191978 0 0 128 63
-0.1617521 0.07364137 0.6978548 0 0 128 63
-0.1597705 0.07052082 0.6962217 0 0 128 63
-0.1340126 0.06826943 0.7183511 0 0 128 63
-0.130484 0.06951915 0.719258 0 0 128 63
-0.1264196 0.06968758 0.7192075 0 0 128 63
-0.1616883 0.07705295 0.6980503 0 0 128 63
-0.1295873 0.07484283 0.720254 0 0 128 63
-0.1252791 0.07481033 0.719955 0 0 128 63
-0.1296267 0.07970938 0.7199792 0 0 128 63
-0.1246636 0.07920487 0.7200577 0 0 128 63
-0.1291219 0.08435829 0.7190348 0 0 128 63
-0.1256999 0.08402795 0.7193656 0 0 128 63
-0.04696235 0.07772198 0.7744737 0 0 128 63
-0.1275599 0.08968778 0.7188445 0 0 128 63
-0.1242395 0.08918372 0.7193958 0 0 128 63
-0.05291927 0.08361781 0.7697998 0 0 128 63
-0.04915115 0.08325623 0.7725005 0 0 128 63
-0.04627723 0.08186351 0.77498 0 0 128 63
-0.04214171 0.08258365 0.7775241 0 0 128 63
-0.03283325 0.08103749 0.7842451 0 0 128 63
-0.03096449 0.0817288 0.7855183 0 0 128 63
-0.1269437 0.09505679 0.7184644 0 0 128 63
-0.1238208 0.09408914 0.7189517 0 0 128 63
-0.05271587 0.08565767 0.7697892 0 0 128 63
-0.04984844 0.0875801 0.7722443 0 0 128 63
-0.04627523 0.08701463 0.7754018 0 0 128 63
-0.04221001 0.08670148 0.7776542 0 0 128 63
-0.03004509 0.08521111 0.7867249 0 0 128 63
-0.127627 0.09957238 0.7186602 0 0 128 63
-0.1233679 0.09910074 0.7186464 0 0 128 63
-0.05151728 0.09368612 0.7712579 0 0 128 63
-0.04928258 0.09208548 0.7725554 0 0 128 63
-0.04567349 0.09158809 0.7756576 0 0 128 63
-0.04134798 0.09054406 0.7774824 0 0 128 63
-0.02844697 0.08865319 0.7867782 0 0 128 63
-0.1271286 0.1043498 0.71893 0 0 128 63
-0.1229251 0.1037212 0.7193114 0 0 128 63
-0.04844984 0.09621952 0.7722588 0 0 128 63
-0.04467079 0.09612438 0.774865 0 0 128 63
-0.1260362 0.1094285 0.7196542 0 0 128 63
-0.1216584 0.1090437 0.7196156 0 0 128 63
-0.04683855 0.1011166 0.7727841 0 0 128 63
-0.04470024 0.1009014 0.7743174 0 0 128 63
-0.02665013 0.1002744 0.78717 0 0 128 63
-0.02462128 0.1006021 0.7885844 0 0 128 63
-0.1251784 0.1147936 0.7203465 0 0 128 63
-0.120418 0.1139999 0.7205286 0 0 128 63
-0.02609107 0.10517 0.7871947 0 0 128 63
-0.02389696 0.1057339 0.7895274 0 0 128 63
-0.1246105 0.1188982 0.7204726 0 0 128 63
-0.1205433 0.1188973 0.7209889 0 0 128 63
-0.1170226 0.119253 0.7216168 0 0 128 63
-0.02527693 0.1097799 0.787422 0 0 128 63
-0.02454415 0.1100929 0.7907844 0 0 128 63
-0.1242608 0.1225852 0.7211425 0 0 128 63
-0.120037 0.1236721 0.7212646 0 0 128 63
-0.1167724 0.1239402 0.7238952 0 0 128 63
-0.05271783 0.1184572 0.7672958 0 0 128 63
-0.0500437 0.1182006 0.7692124 0 0 128 63
-0.02361593 0.1128209 0.7920546 0 0 128 63
-0.1204027 0.1276397 0.7234955 0 0 128 63
-0.1167441 0.1284368 0.7246791 0 0 128 63
-0.1123264 0.1303614 0.7253329 0 0 128 63
-0.05650333 0.1247976 0.7641286 0 0 128 63
-0.05446473 0.1232638 0.7669199 0 0 128 63
-0.0506961 0.1234912 0.7691666 0 0 128 63
-0.0478327 0.1239656 0.7703429 0 0 128 63
-0.114342 0.132875 0.7255546 0 0 128 63
-0.1106497 0.1337887 0.7256477 0 0 128 63
-0.1078295 0.1351473 0.726931 0 0 128 63
-0.05672422 0.1287204 0.764411 0 0 128 63
-0.05586663 0.1280825 0.7686303 0 0 128 63
-0.05090299 0.1273274 0.771148 0 0 128 63
-0.04602209 0.126823 0.7723316 0 0 128 63
-0.04162946 0.1273357 0.7750336 0 0 128 63
-0.03783974 0.1274185 0.7777157 0 0 128 63
-0.03433144 0.1280948 0.7796072 0 0 128 63
-0.1107495 0.1387151 0.7275718 0 0 128 63
-0.1068105 0.1378346 0.7291248 0 0 128 63
-0.1019121 0.1373113 0.7314763 0 0 128 63
-0.09790191 0.1374243 0.7342613 0 0 128 63
-0.0571399 0.1333223 0.7635754 0 0 128 63
-0.05514646 0.1326487 0.7683336 0 0 128 63
-0.05156168 0.1323157 0.7718824 0 0 128 63
-0.04703605 0.1303174 0.7750321 0 0 128 63
-0.04354462 0.1307091 0.7771721 0 0 128 63
-0.03950202 0.1306258 0.7806605 0 0 128 63
-0.0346387 0.129691 0.7811105 0 0 128 63
-0.1067278 0.1420977 0.7317911 0 0 128 63
-0.1027216 0.1422789 0.7329962 0 0 128 63
-0.09818491 0.1419314 0.735561 0 0 128 63
-0.09363213 0.1412911 0.7375598 0 0 128 63
-0.08978674 0.1411923 0.739744 0 0 128 63
-0.08536443 0.141968 0.7427592 0 0 128 63
-0.08150256 0.1419636 0.7450898 0 0 128 63
-0.06018788 0.1386133 0.7606407 0 0 128 63
-0.05742291 0.1378253 0.7635615 0 0 128 63
-0.05343279 0.1375398 0.767028 0 0 128 63
-0.05118757 0.137764 0.7714189 0 0 128 63
-0.1032145 0.1461823 0.7342802 0 0 128 63
-0.09882894 0.1473795 0.7365986 0 0 128 63
-0.0945287 0.1471275 0.7391418 0 0 128 63
-0.08952728 0.1463783 0.7406177 0 0 128 63
-0.08533844 0.145944 0.7436785 0 0 128 63
-0.08124635 0.1461166 0.746594 0 0 128 63
-0.07705787 0.1458076 0.7481555 0 0 128 63
-0.07230604 0.1464054 0.7512764 0 0 128 63
-0.06801122 0.1459933 0.7543545 0 0 128 63
-0.06072721 0.1436065 0.7605537 0 0 128 63
-0.05748376 0.1433619 0.7641726 0 0 128 63
-0.05406594 0.1428034 0.7679861 0 0 128 63
-0.05079469 0.1424457 0.7714784 0 0 128 63
-0.09742883 0.1496454 0.7381215 0 0 128 63
-0.09000644 0.1501323 0.7421217 0 0 128 63
-0.08581725 0.1501656 0.7450911 0 0 128 63
-0.08174539 0.1505828 0.7481713 0 0 128 63
-0.07626539 0.1501604 0.7491875 0 0 128 63
-0.07240322 0.1503906 0.7516608 0 0 128 63
-0.06827575 0.1492962 0.754969 0 0 128 63
-0.06412542 0.1491953 0.7576497 0 0 128 63
-0.06046322 0.1481843 0.7612977 0 0 128 63
-0.05780765 0.1480787 0.7656464 0 0 128 63
-0.05495819 0.1462734 0.7685069 0 0 128 63
-0.05067205 0.1451589 0.7716322 0 0 128 63
-0.08054888 0.1544032 0.7494279 0 0 128 63
-0.07729855 0.1554449 0.7511799 0 0 128 63
-0.07373807 0.1549511 0.7534501 0 0 128 63
-0.06958181 0.1535736 0.7566568 0 0 128 63
-0.06527603 0.1527519 0.7600809 0 0 128 63
-0.06120229 0.1514903 0.7630668 0 0 128 63
-0.07788149 0.1586192 0.7513069 0 0 128 63
-0.1528482 0.03323473 0.7125643 0 0 128 63
-0.1509791 0.03299872 0.7126797 0 0 128 63
-0.1513954 0.03713873 0.7132983 0 0 128 63
-0.1493089 0.03826314 0.7134647 0 0 128 63
-0.1509961 0.04114382 0.7132773 0 0 128 63
-0.1479941 0.04152534 0.7142862 0 0 128 63
-0.1440344 0.04171222 0.7144876 0 0 128 63
-0.1504603 0.0465171 0.7132492 0 0 128 63
-0.1480407 0.04558516 0.714627 0 0 128 63
-0.1445871 0.04448404 0.7151133 0 0 128 63
-0.1599288 0.05870778 0.7019206 0 0 128 63
-0.1582883 0.05776681 0.7031559 0 0 128 63
-0.1643368 0.06476924 0.7007899 0 0 128 63
-0.1610895 0.06301701 0.7021738 0 0 128 63
-0.157811 0.06202152 0.7045532 0 0 128 63
-0.1544041 0.06209998 0.7080391 0 0 128 63
-0.1494347 0.06196612 0.7093908 0 0 128 63
-0.1459697 0.06266139 0.7132429 0 0 128 63
-0.1409172 0.06230822 0.7151341 0 0 128 63
-0.1640094 0.0680529 0.7007727 0 0 128 63
-0.1618001 0.06802014 0.702626 0 0 128 63
-0.1581667 0.06739396 0.7053772 0 0 128 63
-0.153789 0.06709224 0.7083265 0 0 128 63
-0.1496823 0.06684092 0.7111231 0 0 128 63
-0.146973 0.06594796 0.713912 0 0 128 63
-0.142034 0.06597881 0.7167246 0 0 128 63
-0.1376761 0.0669909 0.7178966 0 0 128 63
-0.164203 0.07349618 0.7002218 0 0 128 63
-0.1614742 0.0729351 0.7026097 0 0 128 63
-0.1579628 0.07262489 0.7054315 0 0 128 63
-0.1536896 0.07208949 0.7085431 0 0 128 63
-0.1498586 0.0714123 0.7116619 0 0 128 63
-0.1469794 0.06994122 0.713939 0 0 128 63
-0.1415466 0.07045798 0.7177539 0 0 128 63
-0.1368611 0.07060112 0.719156 0 0 128 63
-0.1330234 0.07146257 0.7200387 0 0 128 63
-0.1629379 0.07879947 0.7007164 0 0 128 63
-0.1611963 0.0777332 0.702978 0 0 128 63
-0.1573574 0.07704851 0.7058478 0 0 128 63
-0.1534714 0.07655871 0.7084528 0 0 128 63
-0.1367994 0.07529047 0.7202279 0 0 128 63
-0.1330207 0.07504527 0.7197684 0 0 128 63
-0.1600944 0.08250511 0.7035689 0 0 128 63
-0.1568733 0.08254313 0.7058682 0 0 128 63
-0.1539774 0.08160023 0.7080888 0 0 128 63
-0.1362163 0.08040215 0.7199979 0 0 128 63
-0.1325527 0.0797386 0.7197438 0 0 128 63
-0.1592837 0.08649056 0.7037071 0 0 128 63
-0.1567132 0.08735022 0.7057111 0 0 128 63
-0.1386793 0.08672482 0.7185521 0 0 128 63
-0.1350881 0.08547215 0.7188403 0 0 128 63
-0.1318235 0.08705224 0.7197055 0 0 128 63
-0.1381435 0.0920981 0.7185239 0 0 128 63
-0.1351325 0.09058656 0.7194235 0 0 128 63
-0.1314861 0.09043542 0.7196877 0 0 128 63
-0.1505964 0.09815514 0.7092295 0 0 128 63
-0.1471761 0.09701324 0.7117428 0 0 128 63
-0.1435699 0.09688821 0.7143105 0 0 128 63
-0.1389793 0.09588684 0.7176433 0 0 128 63
-0.1348253 0.09518763 0.7191914 0 0 128 63
-0.1310892 0.09441562 0.7196669 0 0 128 63
-0.1508689 0.1020958 0.7085833 0 0 128 63
-0.146493 0.1016759 0.7117195 0 0 128 63
-0.1433125 0.1013841 0.7141516 0 0 128 63
-0.1386661 0.1006794 0.7175013 0 0 128 63
-0.1340217 0.1003244 0.7190827 0 0 128 63
-0.1498455 0.1063665 0.7091385 0 0 128 63
-0.1458586 0.1068463 0.711439 0 0 128 63
-0.1423111 0.1064 0.7142352 0 0 128 63
-0.1382643 0.1054973 0.7173086 0 0 128 63
-0.1332882 0.1056018 0.718895 0 0 128 63
-0.1298193 0.1071523 0.7196001 0 0 128 63
-0.1450291 0.1104674 0.7112199 0 0 128 63
-0.1420233 0.111273 0.7140915 0 0 128 63
-0.1377468 0.1092047 0.7175058 0 0 128 63
-0.1330966 0.1104859 0.7199702 0 0 128 63
-0.1288525 0.1097384 0.7200897 0 0 128 63
-0.131742 0.1148653 0.7213355 0 0 128 63
-0.1280366 0.1143648 0.7203168 0 0 128 63
-0.1285041 0.1223149 0.7230666 0 0 128 63
-0.1270147 0.1249984 0.7226908 0 0 128 63
-0.1268504 0.1295115 0.7230787 0 0 128 63
-0.1230684 0.1296174 0.7241566 0 0 128 63
-0.1266421 0.1348943 0.7234318 0 0 128 63
-0.1230834 0.1345814 0.7254426 0 0 128 63
-0.1181858 0.134012 0.7266314 0 0 128 63
-0.05290809 0.1294072 0.7724711 0 0 128 63
-0.1258433 0.1383337 0.7237371 0 0 128 63
-0.122469 0.1387705 0.7260978 0 0 128 63
-0.1181671 0.1389349 0.7282436 0 0 128 63
-0.1148415 0.1367564 0.7279764 0 0 128 63
-0.05104935 0.1332806 0.7734955 0 0 128 63
-0.0477812 0.1330888 0.7758284 0 0 128 63
-0.04422009 0.1331988 0.7791653 0 0 128 63
-0.0403513 0.1323243 0.7817716 0 0 128 63
-0.03675008 0.131875 0.7837462 0 0 128 63
-0.1210706 0.141894 0.7268524 0 0 128 63
-0.1178136 0.1434616 0.7287164 0 0 128 63
-0.1129708 0.1435394 0.7304261 0 0 128 63
-0.1090437 0.1433493 0.7315886 0 0 128 63
-0.04991987 0.137224 0.7739971 0 0 128 63
-0.04801276 0.1372662 0.7767799 0 0 128 63
-0.04386017 0.1364184 0.7803225 0 0 128 63
-0.04129288 0.1357308 0.7834553 0 0 128 63
-0.03798345 0.1339214 0.7864012 0 0 128 63
-0.1160394 0.1478165 0.7292347 0 0 128 63
-0.1127603 0.1484714 0.7313032 0 0 128 63
-0.10851 0.14766 0.7333068 0 0 128 63
-0.1044215 0.1484053 0.7355365 0 0 128 63
-0.04945269 0.141909 0.7739725 0 0 128 63
-0.04775864 0.1420387 0.777007 0 0 128 63
-0.04412231 0.1419167 0.7809781 0 0 128 63
-0.04178107 0.1404137 0.7832138 0 0 128 63
-0.1085327 0.1515403 0.7350141 0 0 128 63
-0.1043081 0.1515599 0.7369567 0 0 128 63
-0.1001625 0.1526825 0.7396367 0 0 128 63
-0.09549728 0.15211 0.7417613 0 0 128 63
-0.09144041 0.1529011 0.7445793 0 0 128 63
-0.08693948 0.1527667 0.7470454 0 0 128 63
-0.05799446 0.1501876 0.767284 0 0 128 63
-0.05500385 0.1486724 0.7704141 0 0 128 63
-0.05117866 0.1474594 0.7731768 0 0 128 63
-0.04860348 0.1464902 0.7773858 0 0 128 63
-0.04386851 0.145898 0.7813163 0 0 128 63
-0.09947565 0.1556774 0.741125 0 0 128 63
-0.09637621 0.1562554 0.7431434 0 0 128 63
-0.09208551 0.1562211 0.7457803 0 0 128 63
-0.08733705 0.1560622 0.7482738 0 0 128 63
-0.08264664 0.1562145 0.7496886 0 0 128 63
-0.07979354 0.1576036 0.751256 0 0 128 63
-0.07276753 0.1562764 0.7563412 0 0 128 63
-0.0700314 0.1562315 0.7582857 0 0 128 63
-0.06732759 0.1554125 0.7621086 0 0 128 63
-0.06288049 0.1542433 0.7650451 0 0 128 63
-0.0594984 0.1533791 0.7688783 0 0 128 63
-0.05569583 0.1521349 0.7722063 0 0 128 63
-0.05230984 0.1509172 0.7749466 0 0 128 63
-0.09486035 0.1610778 0.7439889 0 0 128 63
-0.09061345 0.1593643 0.7471318 0 0 128 63
-0.08737126 0.159454 0.7492204 0 0 128 63
-0.08323154 0.1608395 0.7510281 0 0 128 63
-0.07860109 0.1605829 0.7532157 0 0 128 63
-0.07486394 0.1602822 0.7569041 0 0 128 63
-0.07119825 0.1587805 0.7606425 0 0 128 63
-0.06770781 0.1571664 0.7635484 0 0 128 63
-0.06395721 0.1573366 0.7660207 0 0 128 63
-0.06002304 0.156429 0.769056 0 0 128 63
-0.07917857 0.1636917 0.7549151 0 0 128 63
-0.1595865 0.03471712 0.7138136 0 0 128 63
-0.1563585 0.03364108 0.7137285 0 0 128 63
-0.1599721 0.03750531 0.7143519 0 0 128 63
-0.1559031 0.0370329 0.7144081 0 0 128 63
-0.1594057 0.04156242 0.7146502 0 0 128 63
-0.154454 0.04184366 0.7139103 0 0 128 63
-0.1534874 0.04542406 0.7136416 0 0 128 63
-0.1469289 0.06792259 0.7170764 0 0 128 63
-0.1494607 0.07235201 0.7144524 0 0 128 63
-0.1480338 0.0721041 0.7178286 0 0 128 63
-0.1541927 0.07841784 0.7127844 0 0 128 63
-0.1519527 0.07625127 0.7143334 0 0 128 63
-0.1491605 0.0747097 0.7193999 0 0 128 63
-0.1441281 0.07619023 0.7213221 0 0 128 63
-0.1403072 0.0755422 0.7207036 0 0 128 63
-0.1639858 0.08256926 0.7033719 0 0 128 63
-0.1547749 0.0827613 0.7124602 0 0 128 63
-0.146186 0.08266176 0.7209059 0 0 128 63
-0.1431046 0.08146247 0.7208797 0 0 128 63
-0.1399053 0.07957217 0.7206825 0 0 128 63
-0.1568097 0.08715801 0.7082896 0 0 128 63
-0.155116 0.08725855 0.7127098 0 0 128 63
-0.1532106 0.08738545 0.7151543 0 0 128 63
-0.1459181 0.08534841 0.7208918 0 0 128 63
-0.1427483 0.08616236 0.7200955 0 0 128 63
-0.1574264 0.09221983 0.7080598 0 0 128 63
-0.153841 0.09198269 0.7118498 0 0 128 63
-0.1505363 0.09218289 0.7150862 0 0 128 63
-0.145417 0.0911582 0.7203965 0 0 128 63
-0.1410902 0.09068736 0.7192706 0 0 128 63
-0.1564477 0.09738679 0.7082552 0 0 128 63
-0.1529032 0.09609698 0.7103818 0 0 128 63
-0.1486412 0.09561296 0.7132665 0 0 128 63
-0.1446798 0.09578261 0.7171388 0 0 128 63
-0.1418139 0.09407048 0.718227 0 0 128 63
-0.1554591 0.1008045 0.7080353 0 0 128 63
-0.1428448 0.1020553 0.716889 0 0 128 63
-0.1410103 0.1021304 0.7181848 0 0 128 63
-0.1420952 0.1076592 0.7169951 0 0 128 63
-0.1415139 0.1106171 0.7171828 0 0 128 63
-0.13943 0.1116972 0.7191056 0 0 128 63
-0.1366163 0.1125581 0.7205097 0 0 128 63
-0.142939 0.116402 0.7200317 0 0 128 63
-0.1392551 0.1156873 0.7208568 0 0 128 63
-0.1347705 0.1153802 0.7220142 0 0 128 63
-0.1390999 0.1208734 0.7226204 0 0 128 63
-0.1352683 0.1203955 0.7232157 0 0 128 63
-0.1314335 0.1202314 0.7236035 0 0 128 63
-0.1386171 0.1249312 0.7230639 0 0 128 63
-0.1351244 0.1255736 0.7238178 0 0 128 63
-0.1315686 0.125113 0.7240581 0 0 128 63
-0.1339144 0.1300752 0.724044 0 0 128 63
-0.1310329 0.1304862 0.72403 0 0 128 63
-0.132585 0.1365547 0.725846 0 0 128 63
-0.1297966 0.1350624 0.7242522 0 0 128 63
-0.1284475 0.1409592 0.725902 0 0 128 63
-0.1245761 0.1408703 0.7269002 0 0 128 63
-0.1288405 0.14481 0.7272611 0 0 128 63
-0.1243048 0.1449486 0.7285026 0 0 128 63
-0.0414204 0.1372615 0.7869031 0 0 128 63
-0.03951573 0.1368535 0.7893909 0 0 128 63
-0.1284678 0.1485694 0.7284681 0 0 128 63
-0.124394 0.1493066 0.7299508 0 0 128 63
-0.1207556 0.1497738 0.7310838 0 0 128 63
-0.04252273 0.1413155 0.7877786 0 0 128 63
-0.123555 0.1529199 0.7316228 0 0 128 63
-0.1200913 0.1535875 0.7331519 0 0 128 63
-0.1153713 0.1539551 0.7344463 0 0 128 63
-0.1104917 0.1541117 0.7367047 0 0 128 63
-0.106149 0.1545077 0.739346 0 0 128 63
-0.04965553 0.1487857 0.7811682 0 0 128 63
-0.04597706 0.1481412 0.7835108 0 0 128 63
-0.04265663 0.1449809 0.7847025 0 0 128 63
-0.1155765 0.1587262 0.7366662 0 0 128 63
-0.1114876 0.1582116 0.7384414 0 0 128 63
-0.1066274 0.1577662 0.7406948 0 0 128 63
-0.1021465 0.1582631 0.7421926 0 0 128 63
-0.09732398 0.1590165 0.7448545 0 0 128 63
-0.09385303 0.1586834 0.7473422 0 0 128 63
-0.05937293 0.1553749 0.7720541 0 0 128 63
-0.05660084 0.1546085 0.7744299 0 0 128 63
-0.05280116 0.1527912 0.7780181 0 0 128 63
-0.05140361 0.1523076 0.7826496 0 0 128 63
-0.04705679 0.1508487 0.7851276 0 0 128 63
-0.1137797 0.1615253 0.7379037 0 0 128 63
-0.1109042 0.1625688 0.7396889 0 0 128 63
-0.107055 0.1625129 0.741985 0 0 128 63
-0.1023001 0.1629356 0.7440977 0 0 128 63
-0.09778431 0.161993 0.7460216 0 0 128 63
-0.0937598 0.1619863 0.7486587 0 0 128 63
-0.08902606 0.1621224 0.75071 0 0 128 63
-0.07255593 0.1614116 0.7622433 0 0 128 63
-0.06828052 0.1599842 0.7653847 0 0 128 63
-0.06442982 0.1599588 0.7681184 0 0 128 63
-0.06095725 0.1588443 0.7711134 0 0 128 63
-0.05682313 0.1580567 0.7745806 0 0 128 63
-0.05376419 0.1576814 0.7793794 0 0 128 63
-0.1061129 0.1662144 0.7429864 0 0 128 63
-0.1024714 0.1664904 0.7450881 0 0 128 63
-0.09829262 0.1665139 0.7475901 0 0 128 63
-0.09448066 0.1669097 0.7505304 0 0 128 63
-0.09013364 0.1666267 0.7526158 0 0 128 63
-0.08482245 0.1661932 0.7540993 0 0 128 63
-0.08003822 0.1659194 0.7570842 0 0 128 63
-0.0766013 0.1655938 0.7610008 0 0 128 63
-0.07362035 0.165117 0.7647803 0 0 128 63
-0.07011637 0.1642519 0.767341 0 0 128 63
-0.06555486 0.1630183 0.7705684 0 0 128 63
-0.06148902 0.1623247 0.7730961 0 0 128 63
-0.05780074 0.1622286 0.7759245 0 0 128 63
-0.05441043 0.161653 0.7796018 0 0 128 63
-0.09292588 0.1704742 0.7520179 0 0 128 63
-0.08972254 0.1706021 0.7542806 0 0 128 63
-0.086 0.1710806 0.756612 0 0 128 63
-0.08188304 0.1705996 0.7591255 0 0 128 63
-0.07730708 0.1701086 0.7621021 0 0 128 63
-0.07414407 0.1697465 0.7650462 0 0 128 63
-0.08474973 0.1737079 0.7575724 0 0 128 63
-0.08173823 0.1740217 0.759685 0 0 128 63
-0.07791504 0.1733334 0.7624494 0 0 128 63
-0.1653024 0.03813761 0.7144125 0 0 128 63
-0.1636242 0.03793881 0.7147993 0 0 128 63
-0.1653957 0.04234515 0.7164835 0 0 128 63
-0.1634691 0.04248034 0.7166114 0 0 128 63
-0.1633683 0.04626935 0.7176237 0 0 128 63
-0.1548927 0.07776769 0.7208338 0 0 128 63
-0.1514631 0.07714231 0.7233729 0 0 128 63
-0.1556446 0.08237673 0.7166745 0 0 128 63
-0.1546941 0.0819996 0.7203256 0 0 128 63
-0.1506032 0.08164914 0.7227629 0 0 128 63
-0.1553766 0.08506338 0.7166604 0 0 128 63
-0.1542825 0.08777058 0.7200657 0 0 128 63
-0.1507552 0.08697166 0.7228649 0 0 128 63
-0.1519521 0.09190787 0.7199347 0 0 128 63
-0.1506986 0.09179761 0.7227433 0 0 128 63
-0.1511953 0.09532993 0.7225319 0 0 128 63
-0.1453486 0.118357 0.7212451 0 0 128 63
-0.1450849 0.1229721 0.7247666 0 0 128 63
-0.1424803 0.1208962 0.7233941 0 0 128 63
-0.1447476 0.1263553 0.7247488 0 0 128 63
-0.1412541 0.1266569 0.7241333 0 0 128 63
-0.1401271 0.1307469 0.7253898 0 0 128 63
-0.1372155 0.1326452 0.7259291 0 0 128 63
-0.1371779 0.1355948 0.7269602 0 0 128 63
-0.1373411 0.1408613 0.7284096 0 0 128 63
-0.135797 0.1459431 0.7283819 0 0 128 63
-0.1325339 0.1459587 0.7282389 0 0 128 63
-0.1345998 0.1507438 0.7294807 0 0 128 63
-0.1306818 0.1504434 0.7294578 0 0 128 63
-0.1274023 0.1522973 0.7313977 0 0 128 63
-0.04206076 0.1413626 0.7927707 0 0 128 63
-0.1302349 0.1539571 0.7321285 0 0 128 63
-0.1261366 0.1551539 0.7334825 0 0 128 63
-0.1226197 0.1559572 0.7345126 0 0 128 63
-0.1258554 0.1582961 0.7357246 0 0 128 63
-0.1221533 0.1587341 0.7363214 0 0 128 63
-0.1186662 0.1606363 0.7373712 0 0 128 63
-0.05139259 0.1540249 0.7851887 0 0 128 63
-0.04896966 0.1537655 0.7875414 0 0 128 63
-0.1172014 0.1639691 0.7395902 0 0 128 63
-0.1133589 0.1648178 0.7413304 0 0 128 63
-0.1093831 0.1656369 0.7431673 0 0 128 63
-0.05243 0.1578761 0.7854829 0 0 128 63
-0.0508607 0.1572279 0.7890078 0 0 128 63
-0.1169586 0.1673164 0.7405319 0 0 128 63
-0.1136159 0.1687466 0.7426685 0 0 128 63
-0.109266 0.1690944 0.744918 0 0 128 63
-0.1041726 0.1693075 0.746892 0 0 128 63
-0.1001435 0.1688691 0.7494764 0 0 128 63
-0.06752723 0.1657394 0.7728525 0 0 128 63
-0.06309062 0.1653137 0.7760323 0 0 128 63
-0.05865398 0.1648879 0.7792121 0 0 128 63
-0.05572176 0.1641684 0.7820839 0 0 128 63
-0.05270806 0.1620198 0.7861049 0 0 128 63
-0.112131 0.1720478 0.7444161 0 0 128 63
-0.1076741 0.1716201 0.7476103 0 0 128 63
-0.1042417 0.172044 0.7486092 0 0 128 63
-0.09979501 0.1717032 0.7503682 0 0 128 63
-0.09574655 0.1722921 0.7527962 0 0 128 63
-0.09194604 0.1731745 0.7553743 0 0 128 63
-0.07380038 0.170278 0.768467 0 0 128 63
-0.07161951 0.1695077 0.7716286 0 0 128 63
-0.0683355 0.1682112 0.7743727 0 0 128 63
-0.0641014 0.1675802 0.7769856 0 0 128 63
-0.05953842 0.166484 0.7792823 0 0 128 63
-0.1000958 0.1750117 0.7527288 0 0 128 63
-0.09621963 0.1762805 0.7553821 0 0 128 63
-0.09158072 0.1766075 0.7568738 0 0 128 63
-0.08714226 0.176244 0.7587535 0 0 128 63
-0.08308914 0.1769813 0.7617776 0 0 128 63
-0.07894826 0.1761417 0.7642671 0 0 128 63
-0.0757027 0.1751583 0.7685892 0 0 128 63
-0.07300761 0.173964 0.772025 0 0 128 63
-0.08774313 0.1798071 0.7604256 0 0 128 63
-0.08339831 0.1806663 0.7634745 0 0 128 63
-0.07976985 0.1804767 0.766166 0 0 128 63
-0.0766516 0.1796635 0.7690069 0 0 128 63
-0.08178461 0.1843049 0.7650129 0 0 128 63
-0.07990158 0.1845931 0.766327 0 0 128 63
-0.0773277 0.1838773 0.7682071 0 0 128 63
-0.1723974 0.03902444 0.7166824 0 0 128 63
-0.1699223 0.03877622 0.7164099 0 0 128 63
-0.1687277 0.04360263 0.7177096 0 0 128 63
-0.164804 0.04510761 0.7179219 0 0 128 63
-0.1685466 0.04766936 0.7184503 0 0 128 63
-0.16394 0.04844025 0.7182816 0 0 128 63
-0.1529659 0.07973447 0.7236892 0 0 128 63
-0.1552159 0.08547552 0.7216569 0 0 128 63
-0.152947 0.0852578 0.7232831 0 0 128 63
-0.1490625 0.1228222 0.7259486 0 0 128 63
-0.1471848 0.1261645 0.725082 0 0 128 63
-0.1439804 0.1323198 0.7268876 0 0 128 63
-0.1437133 0.1367812 0.7280074 0 0 128 63
-0.1419359 0.1412961 0.7280654 0 0 128 63
-0.1394528 0.1418263 0.7285582 0 0 128 63
-0.1422144 0.1459205 0.7285402 0 0 128 63
-0.1389766 0.1466026 0.7285331 0 0 128 63
-0.1411678 0.1507468 0.7297348 0 0 128 63
-0.1382228 0.1513185 0.729938 0 0 128 63
-0.1369567 0.1552667 0.732686 0 0 128 63
-0.1335429 0.155655 0.7336656 0 0 128 63
-0.1289831 0.1573972 0.7348026 0 0 128 63
-0.1318878 0.1588975 0.7356989 0 0 128 63
-0.1286524 0.1604027 0.7365638 0 0 128 63
-0.1252538 0.1611581 0.7371625 0 0 128 63
-0.1279223 0.1634426 0.738781 0 0 128 63
-0.1238377 0.1645929 0.739817 0 0 128 63
-0.1203207 0.1655067 0.7403316 0 0 128 63
-0.1228503 0.1691843 0.7419429 0 0 128 63
-0.1190599 0.1698926 0.7421212 0 0 128 63
-0.1144454 0.1736724 0.7451078 0 0 128 63
-0.1103611 0.1736753 0.7477319 0 0 128 63
-0.1059281 0.1744727 0.7498608 0 0 128 63
-0.06927362 0.1709556 0.7761311 0 0 128 63
-0.06568053 0.1702802 0.7795504 0 0 128 63
-0.06385472 0.169648 0.7831456 0 0 128 63
-0.05776659 0.1663547 0.7883291 0 0 128 63
-0.1105492 0.1774134 0.7500443 0 0 128 63
-0.1064247 0.1772791 0.751752 0 0 128 63
-0.1019159 0.1778253 0.7539878 0 0 128 63
-0.09776011 0.1783456 0.7557704 0 0 128 63
-0.07171705 0.1753231 0.7740659 0 0 128 63
-0.06883302 0.1746135 0.776821 0 0 128 63
-0.06631622 0.1738208 0.7808368 0 0 128 63
-0.1053437 0.1806643 0.7534901 0 0 128 63
-0.1025133 0.1807443 0.755492 0 0 128 63
-0.09820488 0.1819361 0.7580484 0 0 128 63
-0.09345874 0.1819791 0.7598116 0 0 128 63
-0.08800474 0.1827484 0.761947 0 0 128 63
-0.08562389 0.1831059 0.7636089 0 0 128 63
-0.07568946 0.1816839 0.7707645 0 0 128 63
-0.07244265 0.1797135 0.7732177 0 0 128 63
-0.06897005 0.1795759 0.7776365 0 0 128 63
-0.06651524 0.179032 0.7808086 0 0 128 63
-0.08976576 0.186701 0.7635368 0 0 128 63
-0.08467755 0.1865115 0.7649149 0 0 128 63
-0.07978973 0.1864036 0.7678482 0 0 128 63
-0.07618481 0.1854844 0.7706158 0 0 128 63
-0.07332352 0.1849412 0.7748278 0 0 128 63
-0.06982478 0.1837844 0.7781777 0 0 128 63
-0.06644955 0.1829262 0.7809103 0 0 128 63
-0.09203079 0.1926675 0.7611012 0 0 128 63
-0.08958396 0.1912718 0.763455 0 0 128 63
-0.08525577 0.1902594 0.7660905 0 0 128 63
-0.08054763 0.1897279 0.7686374 0 0 128 63
-0.07687163 0.1901902 0.7716249 0 0 128 63
-0.07517263 0.1895228 0.7742208 0 0 128 63
-0.07702321 0.1931159 0.772635 0 0 128 63
-0.17957 0.0399522 0.7188941 0 0 128 63
-0.1757832 0.04044231 0.7182676 0 0 128 63
-0.1756509 0.04435929 0.7187293 0 0 128 63
-0.1723485 0.04465823 0.7187461 0 0 128 63
-0.1757495 0.04856687 0.7191074 0 0 128 63
-0.1720012 0.0481409 0.7187278 0 0 128 63
-0.1538903 0.1248666 0.7269751 0 0 128 63
-0.1521535 0.1224835 0.7271599 0 0 128 63
-0.1544558 0.1269527 0.726907 0 0 128 63
-0.1522078 0.1274823 0.7275605 0 0 128 63
-0.1536727 0.132192 0.7290298 0 0 128 63
-0.1507265 0.1326167 0.7291573 0 0 128 63
-0.1540551 0.1358516 0.7297089 0 0 128 63
-0.1511702 0.1374246 0.729998 0 0 128 63
-0.1500424 0.1423607 0.7301627 0 0 128 63
-0.1482216 0.1471024 0.7301847 0 0 128 63
-0.1450277 0.1488227 0.7302139 0 0 128 63
-0.1491452 0.1514536 0.7320066 0 0 128 63
-0.1446387 0.1516673 0.7306833 0 0 128 63
-0.1425795 0.15497 0.7320977 0 0 128 63
-0.139512 0.1571002 0.733498 0 0 128 63
-0.1383332 0.1600073 0.7353417 0 0 128 63
-0.1350928 0.1610192 0.7367958 0 0 128 63
-0.1335651 0.1642419 0.737911 0 0 128 63
-0.1299588 0.1658609 0.7396095 0 0 128 63
-0.1295104 0.168905 0.7409247 0 0 128 63
-0.1260642 0.1702709 0.7424058 0 0 128 63
