# .PCD v.7 - Point Cloud Data file format
VERSION .7
FIELDS x y z _
SIZE 4 4 4 1
TYPE F F F U
COUNT 1 1 1 4
WIDTH 1125
HEIGHT 1
VIEWPOINT 0 0 0 1 0 0 0
POINTS 1125
DATA ascii
-0.147068 0.02473231 0.7084167 0 0 128 63
-0.143204 0.02633145 0.707752 0 0 128 63
-0.1602057 0.02334563 0.7135121 0 0 128 63
-0.1581064 0.02625117 0.7121096 0 0 128 63
-0.1535275 0.02799997 0.7102327 0 0 128 63
-0.1486266 0.029685 0.7098781 0 0 128 63
-0.1452883 0.02979896 0.7085487 0 0 128 63
-0.1673917 0.02921662 0.7159581 0 0 128 63
-0.164284 0.03006455 0.7140766 0 0 128 63
-0.1597858 0.03059972 0.7120059 0 0 128 63
-0.1548927 0.03258155 0.7113067 0 0 128 63
-0.1509649 0.03390061 0.7104453 0 0 128 63
-0.1783845 0.02896501 0.7219449 0 0 128 63
-0.1739767 0.03030307 0.7192434 0 0 128 63
-0.1693149 0.03219544 0.7162703 0 0 128 63
-0.1658668 0.03330547 0.7142869 0 0 128 63
-0.1613104 0.03505265 0.7124225 0 0 128 63
-0.1564599 0.03690235 0.7119914 0 0 128 63
-0.1793207 0.03404663 0.721698 0 0 128 63
-0.1755533 0.03554671 0.7198014 0 0 128 63
-0.1719186 0.03672982 0.7170361 0 0 128 63
-0.1675963 0.03843721 0.7149155 0 0 128 63
-0.162882 0.04031306 0.7136606 0 0 128 63
-0.1590126 0.04162338 0.7128132 0 0 128 63
-0.1805605 0.0392149 0.7224209 0 0 128 63
-0.1766416 0.04095984 0.7212108 0 0 128 63
-0.1725626 0.04269121 0.7188713 0 0 128 63
-0.168804 0.04364043 0.7162822 0 0 128 63
-0.1644228 0.04503646 0.7145323 0 0 128 63
-0.1603455 0.04638322 0.7126324 0 0 128 63
-0.1351373 0.05782833 0.6962608 0 0 128 63
-0.132763 0.05683637 0.6925666 0 0 128 63
-0.1813821 0.04428651 0.7239012 0 0 128 63
-0.1785111 0.04516917 0.7227198 0 0 128 63
-0.172071 0.04777511 0.7186146 0 0 128 63
-0.1710205 0.04816256 0.7179541 0 0 128 63
-0.166185 0.04856122 0.7152506 0 0 128 63
-0.1376587 0.06053022 0.6956559 0 0 128 63
-0.135965 0.06033566 0.6917406 0 0 128 63
-0.1823558 0.04678557 0.7238184 0 0 128 63
-0.180454 0.04802086 0.7230737 0 0 128 63
-0.1720003 0.05067713 0.7178708 0 0 128 63
-0.1399858 0.06452126 0.6946553 0 0 128 63
-0.1367075 0.06657159 0.6925283 0 0 128 63
-0.1442717 0.06931575 0.6972294 0 0 128 63
-0.141375 0.06956554 0.6959649 0 0 128 63
-0.1375773 0.07047341 0.6943849 0 0 128 63
-0.1454588 0.07347284 0.6970909 0 0 128 63
-0.1438203 0.07463671 0.6961902 0 0 128 63
-0.1467765 0.07774895 0.6971098 0 0 128 63
-0.1445666 0.0790441 0.6959521 0 0 128 63
-0.1462025 0.08160125 0.6964445 0 0 128 63
-0.1321137 0.02129818 0.7069994 0 0 128 63
-0.1290378 0.02184372 0.705441 0 0 128 63
-0.1267056 0.0228211 0.7044883 0 0 128 63
-0.1390812 0.02285946 0.708052 0 0 128 63
-0.1353181 0.0235884 0.7068627 0 0 128 63
-0.1312202 0.02529422 0.7049204 0 0 128 63
-0.1275125 0.02543639 0.7041767 0 0 128 63
-0.1404995 0.02726557 0.708409 0 0 128 63
-0.136963 0.02876513 0.7076522 0 0 128 63
-0.1330909 0.02974544 0.7064885 0 0 128 63
-0.1477773 0.03248741 0.7103984 0 0 128 63
-0.1433734 0.03229339 0.7092334 0 0 128 63
-0.1387592 0.03389599 0.7080265 0 0 128 63
-0.1358865 0.03499026 0.7068653 0 0 128 63
-0.1483385 0.03562226 0.7117974 0 0 128 63
-0.1449654 0.03660997 0.7102036 0 0 128 63
-0.1406154 0.03811549 0.7085384 0 0 128 63
-0.1550269 0.03982619 0.7125217 0 0 128 63
-0.1512942 0.03917731 0.711829 0 0 128 63
-0.1466876 0.04079849 0.7106945 0 0 128 63
-0.1422409 0.04109877 0.7088052 0 0 128 63
-0.1565748 0.04325923 0.7128116 0 0 128 63
-0.1528997 0.04435074 0.7123659 0 0 128 63
-0.1485486 0.04430058 0.7114267 0 0 128 63
-0.1611987 0.04617778 0.7143041 0 0 128 63
-0.1578814 0.04769237 0.7133093 0 0 128 63
-0.1544304 0.04855677 0.7122716 0 0 128 63
-0.1349975 0.05590849 0.6984779 0 0 128 63
-0.1773457 0.04618751 0.7230058 0 0 128 63
-0.173782 0.04725683 0.7208247 0 0 128 63
-0.1683647 0.04910844 0.7185103 0 0 128 63
-0.1639896 0.0505288 0.71641 0 0 128 63
-0.1597659 0.05162361 0.7143649 0 0 128 63
-0.1558892 0.05235892 0.7128432 0 0 128 63
-0.1370152 0.05843436 0.6982875 0 0 128 63
-0.181715 0.05031049 0.7270692 0 0 128 63
-0.1783829 0.05109581 0.7238011 0 0 128 63
-0.1747508 0.05175627 0.7207507 0 0 128 63
-0.1703822 0.05383473 0.7191738 0 0 128 63
-0.1659864 0.05523788 0.7176692 0 0 128 63
-0.1624889 0.05534967 0.7162544 0 0 128 63
-0.1826766 0.05438396 0.7273716 0 0 128 63
-0.1795079 0.0554923 0.7249099 0 0 128 63
-0.1753035 0.05719287 0.7223973 0 0 128 63
-0.1719513 0.05687111 0.7205979 0 0 128 63
-0.168051 0.0583578 0.7185212 0 0 128 63
-0.1376898 0.07348832 0.6949903 0 0 128 63
-0.1837537 0.05791894 0.7270924 0 0 128 63
-0.181275 0.05953573 0.7253633 0 0 128 63
-0.1407995 0.07526533 0.6972303 0 0 128 63
-0.1369696 0.07644344 0.6968524 0 0 128 63
-0.1332708 0.0761913 0.6954362 0 0 128 63
-0.1420136 0.07972256 0.6958051 0 0 128 63
-0.1393523 0.08122944 0.6970248 0 0 128 63
-0.1447199 0.08475555 0.6977826 0 0 128 63
-0.1417282 0.08547663 0.6972725 0 0 128 63
-0.1448351 0.08843625 0.6986923 0 0 128 63
-0.1431785 0.08904722 0.6976507 0 0 128 63
-0.1178546 0.02237883 0.7039878 0 0 128 63
-0.1140193 0.02394006 0.7035738 0 0 128 63
-0.1229934 0.02332915 0.7053327 0 0 128 63
-0.1185424 0.02507161 0.7047686 0 0 128 63
-0.1143676 0.02666051 0.7033581 0 0 128 63
-0.1113714 0.02779525 0.7023706 0 0 128 63
-0.1247693 0.02826685 0.7061864 0 0 128 63
-0.120009 0.02964645 0.7054148 0 0 128 63
-0.1159614 0.03098848 0.7037515 0 0 128 63
-0.1126173 0.03099278 0.7022647 0 0 128 63
-0.1308391 0.03179836 0.7075346 0 0 128 63
-0.1263759 0.03306103 0.7079439 0 0 128 63
-0.1216894 0.03399526 0.7064248 0 0 128 63
-0.1327911 0.03558654 0.7076334 0 0 128 63
-0.1281664 0.03738949 0.7087424 0 0 128 63
-0.1383191 0.04000122 0.7092816 0 0 128 63
-0.1346126 0.04019576 0.7089403 0 0 128 63
-0.1307677 0.04140594 0.7093229 0 0 128 63
-0.1446424 0.04342098 0.7118586 0 0 128 63
-0.1410102 0.04420593 0.7103874 0 0 128 63
-0.1363424 0.04488827 0.7098873 0 0 128 63
-0.1324129 0.04467561 0.7096082 0 0 128 63
-0.1499152 0.04722818 0.713775 0 0 128 63
-0.1460871 0.04684917 0.7127331 0 0 128 63
-0.141941 0.04800709 0.7109136 0 0 128 63
-0.1382038 0.04989909 0.7094846 0 0 128 63
-0.1332067 0.05311715 0.7079833 0 0 128 63
-0.1294478 0.05390697 0.705765 0 0 128 63
-0.1515387 0.05062377 0.7138245 0 0 128 63
-0.1476848 0.05113096 0.7135843 0 0 128 63
-0.1437587 0.05261087 0.711471 0 0 128 63
-0.1400963 0.05391345 0.7085267 0 0 128 63
-0.1355756 0.05545502 0.7068663 0 0 128 63
-0.1305668 0.05545 0.7052185 0 0 128 63
-0.1585056 0.05492456 0.7165342 0 0 128 63
-0.1539815 0.05487377 0.7152696 0 0 128 63
-0.1494071 0.05636092 0.7142573 0 0 128 63
-0.1448863 0.05740336 0.7124976 0 0 128 63
-0.1409726 0.05811607 0.7103731 0 0 128 63
-0.1376401 0.05839752 0.7056039 0 0 128 63
-0.1640497 0.0578861 0.7188025 0 0 128 63
-0.1597895 0.05820797 0.7180681 0 0 128 63
-0.1548582 0.05944962 0.716953 0 0 128 63
-0.1508259 0.06053262 0.7156777 0 0 128 63
-0.1702146 0.05973194 0.7220641 0 0 128 63
-0.1655417 0.06115945 0.7196558 0 0 128 63
-0.1605209 0.06290665 0.7188968 0 0 128 63
-0.1565617 0.06393256 0.7178137 0 0 128 63
-0.1522937 0.06343975 0.715762 0 0 128 63
-0.1841193 0.06124236 0.7288049 0 0 128 63
-0.1798597 0.06239998 0.7266146 0 0 128 63
-0.176136 0.06214678 0.7250079 0 0 128 63
-0.171327 0.06417365 0.7239555 0 0 128 63
-0.1668321 0.06588136 0.7216257 0 0 128 63
-0.1625053 0.06730241 0.7193314 0 0 128 63
-0.1586056 0.06785788 0.7180901 0 0 128 63
-0.1354716 0.07918408 0.6982183 0 0 128 63
-0.1842445 0.06430054 0.7296779 0 0 128 63
-0.1811412 0.0655786 0.7277293 0 0 128 63
-0.1762522 0.06744692 0.7270768 0 0 128 63
-0.172024 0.06811941 0.7252597 0 0 128 63
-0.1679218 0.06974774 0.7226524 0 0 128 63
-0.1648376 0.07088523 0.7207133 0 0 128 63
-0.1364382 0.08221833 0.6980015 0 0 128 63
-0.1350892 0.08294664 0.6970972 0 0 128 63
-0.1845528 0.06890438 0.7318225 0 0 128 63
-0.1829942 0.06798797 0.7312052 0 0 128 63
-0.1381985 0.08740281 0.700449 0 0 128 63
-0.1344569 0.08882355 0.6988127 0 0 128 63
-0.1430364 0.09200671 0.7026634 0 0 128 63
-0.1401245 0.09140172 0.7011118 0 0 128 63
-0.1081063 0.02939168 0.7035141 0 0 128 63
-0.1139107 0.03375214 0.7046145 0 0 128 63
-0.1103704 0.03342351 0.7042382 0 0 128 63
-0.1205636 0.03695921 0.7089698 0 0 128 63
-0.1162469 0.03693876 0.7064157 0 0 128 63
-0.1123562 0.03755521 0.7054075 0 0 128 63
-0.1258096 0.03930517 0.7096782 0 0 128 63
-0.1220354 0.0401205 0.7101563 0 0 128 63
-0.1170688 0.04221735 0.7077436 0 0 128 63
-0.1281939 0.04291014 0.7100869 0 0 128 63
-0.1238512 0.04451995 0.7097505 0 0 128 63
-0.1199963 0.04479472 0.7086951 0 0 128 63
-0.1332975 0.0477064 0.7116717 0 0 128 63
-0.1301745 0.04788672 0.7105252 0 0 128 63
-0.1259048 0.04958715 0.7094074 0 0 128 63
-0.122669 0.05062603 0.7087177 0 0 128 63
-0.134387 0.05100068 0.7114578 0 0 128 63
-0.1320162 0.05206149 0.7099219 0 0 128 63
-0.1279527 0.05261909 0.708293 0 0 128 63
-0.1239995 0.05404087 0.7086045 0 0 128 63
-0.143905 0.05997049 0.7144073 0 0 128 63
-0.1388149 0.06022697 0.712597 0 0 128 63
-0.152304 0.06223413 0.7183843 0 0 128 63
-0.1492525 0.06286251 0.7165866 0 0 128 63
-0.1459661 0.06307111 0.716507 0 0 128 63
-0.1542154 0.06524203 0.7186832 0 0 128 63
-0.1507293 0.0669587 0.7178165 0 0 128 63
-0.1466667 0.06732326 0.7172613 0 0 128 63
-0.16045 0.07009443 0.720864 0 0 128 63
-0.1569029 0.06974133 0.7203448 0 0 128 63
-0.1528866 0.06958995 0.7203949 0 0 128 63
-0.148442 0.07122915 0.7176005 0 0 128 63
-0.1710296 0.07070758 0.7267499 0 0 128 63
-0.1673175 0.07230159 0.7240292 0 0 128 63
-0.1625474 0.07315951 0.7229918 0 0 128 63
-0.1571582 0.07248818 0.7219928 0 0 128 63
-0.1838699 0.07125642 0.7332059 0 0 128 63
-0.1809762 0.07129215 0.7321215 0 0 128 63
-0.1771948 0.07262648 0.7292744 0 0 128 63
-0.1723951 0.07462276 0.728017 0 0 128 63
-0.167965 0.0762792 0.7262323 0 0 128 63
-0.1852591 0.07494911 0.7346058 0 0 128 63
-0.1825999 0.07648987 0.7330442 0 0 128 63
-0.1789971 0.07790204 0.7298346 0 0 128 63
-0.1745021 0.07932542 0.7276878 0 0 128 63
-0.1707245 0.08040609 0.7262183 0 0 128 63
-0.1369884 0.09343139 0.7037038 0 0 128 63
-0.1336126 0.09244462 0.7017368 0 0 128 63
-0.1855632 0.07873517 0.7357854 0 0 128 63
-0.1837023 0.08147443 0.7339225 0 0 128 63
-0.1800197 0.08271966 0.7308987 0 0 128 63
-0.1757552 0.08389308 0.7288568 0 0 128 63
-0.1719755 0.08300083 0.7274236 0 0 128 63
-0.1377068 0.09624032 0.7045698 0 0 128 63
-0.1365372 0.103676 0.7032929 0 0 128 63
-0.1059964 0.03153347 0.7055349 0 0 128 63
-0.1033317 0.03201579 0.7056078 0 0 128 63
-0.107452 0.03520668 0.7065881 0 0 128 63
-0.1041044 0.03586357 0.7067361 0 0 128 63
-0.115564 0.03972159 0.7087012 0 0 128 63
-0.1104844 0.03956918 0.7073279 0 0 128 63
-0.1175395 0.04161327 0.7093061 0 0 128 63
-0.1120009 0.04346698 0.7072996 0 0 128 63
-0.1082616 0.04700301 0.7064794 0 0 128 63
-0.1186188 0.04688676 0.7086056 0 0 128 63
-0.115073 0.04806309 0.7073116 0 0 128 63
-0.1087697 0.04830686 0.7064362 0 0 128 63
-0.1200314 0.05142961 0.7091917 0 0 128 63
-0.1166467 0.05261802 0.7082787 0 0 128 63
-0.1203943 0.05420692 0.710106 0 0 128 63
-0.1167099 0.05659174 0.7085081 0 0 128 63
-0.1424679 0.06414752 0.7174965 0 0 128 63
-0.1396609 0.0652506 0.7166444 0 0 128 63
-0.1478195 0.06723633 0.7193977 0 0 128 63
-0.1444938 0.06977922 0.7181485 0 0 128 63
-0.141209 0.0705164 0.7158113 0 0 128 63
-0.1540319 0.07185858 0.722397 0 0 128 63
-0.1509494 0.07200585 0.7206222 0 0 128 63
-0.1464241 0.0739658 0.7190158 0 0 128 63
-0.1423327 0.07554313 0.7169759 0 0 128 63
-0.1600731 0.0752975 0.7252045 0 0 128 63
-0.1561275 0.07561856 0.7233316 0 0 128 63
-0.1521821 0.07681303 0.7213568 0 0 128 63
-0.1482997 0.0782455 0.7188672 0 0 128 63
-0.1441502 0.08001166 0.7168154 0 0 128 63
-0.1418819 0.07994109 0.715431 0 0 128 63
-0.1659912 0.07805625 0.726562 0 0 128 63
-0.1622854 0.07821416 0.7263654 0 0 128 63
-0.1576701 0.08001279 0.7242148 0 0 128 63
-0.1537049 0.08109564 0.7221873 0 0 128 63
-0.1499247 0.08161127 0.719128 0 0 128 63
-0.1452855 0.08319766 0.7176355 0 0 128 63
-0.1680225 0.08172753 0.7267642 0 0 128 63
-0.1640405 0.08258834 0.7269809 0 0 128 63
-0.1590076 0.08307206 0.725063 0 0 128 63
-0.155496 0.08497076 0.7227083 0 0 128 63
-0.1333209 0.09556521 0.7058551 0 0 128 63
-0.186295 0.08153916 0.7366598 0 0 128 63
-0.1736558 0.08656337 0.7293994 0 0 128 63
-0.1702541 0.08623429 0.7286139 0 0 128 63
-0.166417 0.08645127 0.7273059 0 0 128 63
-0.1378703 0.09896194 0.7063196 0 0 128 63
-0.1341388 0.09960941 0.7053126 0 0 128 63
-0.1302432 0.1025209 0.7045957 0 0 128 63
-0.126597 0.1041958 0.7016808 0 0 128 63
-0.1864927 0.08549326 0.7384188 0 0 128 63
-0.1842286 0.08594271 0.7354046 0 0 128 63
-0.1802111 0.08755422 0.7326922 0 0 128 63
-0.175682 0.08922241 0.7307603 0 0 128 63
-0.1717537 0.0900879 0.7302277 0 0 128 63
-0.1383104 0.1014199 0.7059592 0 0 128 63
-0.1351971 0.1037247 0.7048823 0 0 128 63
-0.1312896 0.1061239 0.7034705 0 0 128 63
-0.1870491 0.08909801 0.7387134 0 0 128 63
-0.1845466 0.09058478 0.7368739 0 0 128 63
-0.1808519 0.09217962 0.7340955 0 0 128 63
-0.1778484 0.09323695 0.7327473 0 0 128 63
-0.134765 0.1083809 0.7058405 0 0 128 63
-0.1328222 0.1089527 0.7034925 0 0 128 63
-0.1809524 0.09645931 0.7336369 0 0 128 63
-0.0998338 0.03410374 0.7073967 0 0 128 63
-0.09783441 0.03487932 0.7072922 0 0 128 63
-0.1014535 0.03759658 0.7074205 0 0 128 63
-0.09774765 0.03862994 0.7070593 0 0 128 63
-0.09383872 0.03974058 0.7072091 0 0 128 63
-0.107607 0.04077009 0.7099658 0 0 128 63
-0.1043788 0.04126967 0.708685 0 0 128 63
-0.0992346 0.04316375 0.7087045 0 0 128 63
-0.109875 0.04659086 0.7097729 0 0 128 63
-0.1058185 0.04578234 0.7091769 0 0 128 63
-0.1013092 0.04776483 0.7092847 0 0 128 63
-0.1111612 0.04999303 0.7105103 0 0 128 63
-0.107389 0.05132309 0.7099375 0 0 128 63
-0.1028625 0.05198734 0.7091617 0 0 128 63
-0.1121095 0.05475163 0.7115746 0 0 128 63
-0.1089754 0.05564038 0.711444 0 0 128 63
-0.1128734 0.05977675 0.7123942 0 0 128 63
-0.1108136 0.05981844 0.7117093 0 0 128 63
-0.1163538 0.0639705 0.7109753 0 0 128 63
-0.1154004 0.06525528 0.7093745 0 0 128 63
-0.1207099 0.06774331 0.7151168 0 0 128 63
-0.1176535 0.06828917 0.7123926 0 0 128 63
-0.1153497 0.07145999 0.7113235 0 0 128 63
-0.1264094 0.07185473 0.7171893 0 0 128 63
-0.1233745 0.07189364 0.7155439 0 0 128 63
-0.1190072 0.07184263 0.7127374 0 0 128 63
-0.1158577 0.07276384 0.7112803 0 0 128 63
-0.1524227 0.08383723 0.7236511 0 0 128 63
-0.1488286 0.08441717 0.7215725 0 0 128 63
-0.1446585 0.08570657 0.719011 0 0 128 63
-0.1418673 0.08623894 0.7173771 0 0 128 63
-0.1619762 0.08542658 0.7284143 0 0 128 63
-0.1588073 0.08616243 0.7266432 0 0 128 63
-0.1539561 0.08729588 0.7237331 0 0 128 63
-0.1503034 0.08827909 0.7215251 0 0 128 63
-0.1462667 0.08983719 0.7195268 0 0 128 63
-0.1422348 0.09193363 0.7179857 0 0 128 63
-0.1298021 0.09709238 0.7086212 0 0 128 63
-0.1266258 0.09817851 0.7072902 0 0 128 63
-0.1676201 0.08994902 0.7303569 0 0 128 63
-0.1637667 0.08905993 0.7291412 0 0 128 63
-0.159728 0.09003726 0.7277077 0 0 128 63
-0.1557941 0.09154318 0.7244657 0 0 128 63
-0.1519172 0.09296096 0.7219343 0 0 128 63
-0.1476455 0.09463321 0.7210909 0 0 128 63
-0.1426331 0.09561651 0.7196917 0 0 128 63
-0.1304142 0.09930374 0.7080262 0 0 128 63
-0.1276318 0.102026 0.7064979 0 0 128 63
-0.1735888 0.09222139 0.7330217 0 0 128 63
-0.1693835 0.0929975 0.7332769 0 0 128 63
-0.164741 0.09381118 0.7316415 0 0 128 63
-0.1602346 0.09580805 0.729598 0 0 128 63
-0.1564842 0.09613515 0.7267998 0 0 128 63
-0.1522198 0.09665955 0.7230789 0 0 128 63
-0.1480866 0.09783848 0.7225558 0 0 128 63
-0.1284504 0.1058864 0.7053668 0 0 128 63
-0.1850587 0.09335249 0.7389295 0 0 128 63
-0.1817263 0.09507859 0.7367134 0 0 128 63
-0.175125 0.0954864 0.7343143 0 0 128 63
-0.1709321 0.09670786 0.7345648 0 0 128 63
-0.1670996 0.09800857 0.7327635 0 0 128 63
-0.1848816 0.09644846 0.7384685 0 0 128 63
-0.1821057 0.09826098 0.7364022 0 0 128 63
-0.1765526 0.09995858 0.7358601 0 0 128 63
-0.1729715 0.1004358 0.7349512 0 0 128 63
-0.1679764 0.1012078 0.7324581 0 0 128 63
-0.1622735 0.1029383 0.7289631 0 0 128 63
-0.1823893 0.1029325 0.7377526 0 0 128 63
-0.1782857 0.1040477 0.7373248 0 0 128 63
-0.09142014 0.04191383 0.7080619 0 0 128 63
-0.08793861 0.04335875 0.7080283 0 0 128 63
-0.09655407 0.04523543 0.7098925 0 0 128 63
-0.09339252 0.04555771 0.7089548 0 0 128 63
-0.09845525 0.04900791 0.71 0 0 128 63
-0.09578899 0.04980882 0.7096587 0 0 128 63
-0.1042301 0.0549733 0.7116622 0 0 128 63
-0.100961 0.05428077 0.7106494 0 0 128 63
-0.09763213 0.05436517 0.7103447 0 0 128 63
-0.1060854 0.05755311 0.7129064 0 0 128 63
-0.1026425 0.05837326 0.7110251 0 0 128 63
-0.108546 0.06259286 0.7136849 0 0 128 63
-0.1040354 0.06343357 0.712211 0 0 128 63
-0.1023093 0.06634132 0.7113478 0 0 128 63
-0.1130738 0.06438705 0.7141402 0 0 128 63
-0.109694 0.06575363 0.7140192 0 0 128 63
-0.1055505 0.06732181 0.712082 0 0 128 63
-0.1023857 0.06885106 0.7089197 0 0 128 63
-0.1221246 0.06692549 0.7211126 0 0 128 63
-0.121219 0.06678616 0.7181413 0 0 128 63
-0.1117828 0.06929141 0.7141105 0 0 128 63
-0.1242993 0.07065136 0.719249 0 0 128 63
-0.1221004 0.07213559 0.7171219 0 0 128 63
-0.1185129 0.07439899 0.7154675 0 0 128 63
-0.1257024 0.07378957 0.7186612 0 0 128 63
-0.1239709 0.07699718 0.7182153 0 0 128 63
-0.119857 0.07835457 0.7159978 0 0 128 63
-0.1244007 0.08093493 0.7197074 0 0 128 63
-0.1220658 0.0832032 0.714799 0 0 128 63
-0.1187527 0.08541056 0.7138318 0 0 128 63
-0.1232245 0.08759188 0.7139692 0 0 128 63
-0.1193441 0.08937525 0.713028 0 0 128 63
-0.1207126 0.09396226 0.7130411 0 0 128 63
-0.1447837 0.09785485 0.723095 0 0 128 63
-0.1416247 0.09835803 0.721657 0 0 128 63
-0.1598608 0.09527672 0.7318492 0 0 128 63
-0.1554279 0.09939698 0.7284578 0 0 128 63
-0.1519697 0.1001914 0.7265295 0 0 128 63
-0.1470232 0.1008414 0.7242537 0 0 128 63
-0.1423309 0.1018529 0.722737 0 0 128 63
-0.138769 0.1026526 0.7210096 0 0 128 63
-0.1686001 0.09801846 0.7358935 0 0 128 63
-0.1647097 0.09975151 0.7333749 0 0 128 63
-0.1612829 0.1007412 0.7314807 0 0 128 63
-0.1569056 0.1025197 0.7289174 0 0 128 63
-0.1525798 0.1040664 0.727762 0 0 128 63
-0.1472505 0.1038157 0.725686 0 0 128 63
-0.1708083 0.1027961 0.735922 0 0 128 63
-0.166893 0.1045116 0.7339106 0 0 128 63
-0.162732 0.1053301 0.7317566 0 0 128 63
-0.1584673 0.1072996 0.7294138 0 0 128 63
-0.155155 0.1076793 0.7278456 0 0 128 63
-0.1763962 0.1060717 0.7381375 0 0 128 63
-0.1725549 0.1071013 0.7367847 0 0 128 63
-0.1679843 0.1088013 0.7347348 0 0 128 63
-0.1642147 0.1095923 0.7325737 0 0 128 63
-0.1605975 0.1111045 0.7313018 0 0 128 63
-0.1818177 0.108695 0.7404221 0 0 128 63
-0.1789462 0.1098012 0.7388231 0 0 128 63
-0.1741243 0.1118193 0.7377614 0 0 128 63
-0.1690781 0.1123009 0.7361634 0 0 128 63
-0.16508 0.1147696 0.7334078 0 0 128 63
-0.1622516 0.1158127 0.7316296 0 0 128 63
-0.1788161 0.1151776 0.7395513 0 0 128 63
-0.1763862 0.1159863 0.7386256 0 0 128 63
-0.1798204 0.117778 0.7382985 0 0 128 63
-0.1675262 0.1227082 0.732796 0 0 128 63
-0.08437717 0.04562453 0.7104949 0 0 128 63
-0.08209741 0.04661206 0.711059 0 0 128 63
-0.09029862 0.04873026 0.7126412 0 0 128 63
-0.08769825 0.04820076 0.7125301 0 0 128 63
-0.09223846 0.05202109 0.7125548 0 0 128 63
-0.0890725 0.05295637 0.7123467 0 0 128 63
-0.09423727 0.05640214 0.7127328 0 0 128 63
-0.0910126 0.05670685 0.7122482 0 0 128 63
-0.09869927 0.05929338 0.7141363 0 0 128 63
-0.09628984 0.06063332 0.7126858 0 0 128 63
-0.09292343 0.0618327 0.7128063 0 0 128 63
-0.1054184 0.06170278 0.7164752 0 0 128 63
-0.1005874 0.06424785 0.7132521 0 0 128 63
-0.09814684 0.06519284 0.7123522 0 0 128 63
-0.0952957 0.0672017 0.7131667 0 0 128 63
-0.1093621 0.06850328 0.7169473 0 0 128 63
-0.1045343 0.07032198 0.7150644 0 0 128 63
-0.0992748 0.06989407 0.7137533 0 0 128 63
-0.09758189 0.07306903 0.7129723 0 0 128 63
-0.110185 0.07216951 0.7173707 0 0 128 63
-0.1051794 0.07323537 0.7160591 0 0 128 63
-0.1011245 0.07419104 0.714609 0 0 128 63
-0.114313 0.07715408 0.7186742 0 0 128 63
-0.1111348 0.07650357 0.7183778 0 0 128 63
-0.1072339 0.07737013 0.7171292 0 0 128 63
-0.1017052 0.07811677 0.7139675 0 0 128 63
-0.1151113 0.07920299 0.7186063 0 0 128 63
-0.113643 0.08145971 0.7175981 0 0 128 63
-0.1088493 0.08315233 0.7161583 0 0 128 63
-0.1058386 0.08429701 0.7146927 0 0 128 63
-0.1151741 0.0854271 0.7164005 0 0 128 63
-0.1107762 0.08761903 0.7155783 0 0 128 63
-0.1078707 0.08951242 0.7145199 0 0 128 63
-0.115963 0.09042542 0.7151746 0 0 128 63
-0.1126981 0.09213131 0.7150331 0 0 128 63
-0.1094311 0.09351712 0.7143871 0 0 128 63
-0.1180798 0.09585813 0.7149946 0 0 128 63
-0.1146379 0.09656283 0.7144201 0 0 128 63
-0.1112092 0.09808058 0.7142359 0 0 128 63
-0.1195374 0.0998304 0.7151048 0 0 128 63
-0.1161807 0.1007365 0.7153986 0 0 128 63
-0.1380637 0.1004177 0.7246582 0 0 128 63
-0.1363667 0.1010435 0.7235912 0 0 128 63
-0.120249 0.1044396 0.7175624 0 0 128 63
-0.1193717 0.1055088 0.7168295 0 0 128 63
-0.1404075 0.1047725 0.7248626 0 0 128 63
-0.1379714 0.1057433 0.7238942 0 0 128 63
-0.1228255 0.111052 0.7173433 0 0 128 63
-0.1219482 0.1121212 0.7166104 0 0 128 63
-0.1495394 0.1066239 0.729335 0 0 128 63
-0.1469461 0.1069184 0.7282526 0 0 128 63
-0.1426447 0.1076822 0.7262129 0 0 128 63
-0.1374107 0.1090234 0.725234 0 0 128 63
-0.1342777 0.1105564 0.7236372 0 0 128 63
-0.1218905 0.1136336 0.7162116 0 0 128 63
-0.1517767 0.1098074 0.7302026 0 0 128 63
-0.148317 0.111054 0.7287605 0 0 128 63
-0.1437999 0.1126464 0.7271895 0 0 128 63
-0.1627775 0.1129257 0.7349385 0 0 128 63
-0.1580507 0.1136061 0.7332209 0 0 128 63
-0.1539078 0.1144061 0.7312689 0 0 128 63
-0.1493858 0.1162394 0.729315 0 0 128 63
-0.1453106 0.1162497 0.7275363 0 0 128 63
-0.1684691 0.1148032 0.73755 0 0 128 63
-0.1640953 0.1154222 0.7350418 0 0 128 63
-0.1597087 0.1172284 0.7331093 0 0 128 63
-0.1556475 0.118921 0.7315734 0 0 128 63
-0.150779 0.1209475 0.7298117 0 0 128 63
-0.1731926 0.1178873 0.739811 0 0 128 63
-0.1697201 0.1185547 0.7379376 0 0 128 63
-0.165721 0.1201579 0.735057 0 0 128 63
-0.1617008 0.1216945 0.7328067 0 0 128 63
-0.1573278 0.1235865 0.731732 0 0 128 63
-0.1531286 0.1247533 0.7303464 0 0 128 63
-0.1780684 0.1200682 0.7414442 0 0 128 63
-0.1757009 0.1220533 0.7398641 0 0 128 63
-0.1721817 0.1238213 0.7376264 0 0 128 63
-0.1674671 0.1251483 0.7354236 0 0 128 63
-0.1632569 0.1265374 0.7327002 0 0 128 63
-0.1590421 0.1278608 0.7315004 0 0 128 63
-0.1554762 0.1281954 0.7307749 0 0 128 63
-0.176507 0.1267174 0.739857 0 0 128 63
-0.1736317 0.1282388 0.7376466 0 0 128 63
-0.168864 0.129672 0.7363935 0 0 128 63
-0.1642741 0.1315793 0.7338233 0 0 128 63
-0.1602767 0.1315022 0.7325585 0 0 128 63
-0.1742318 0.1328143 0.7384342 0 0 128 63
-0.1710489 0.134302 0.7376843 0 0 128 63
-0.1658799 0.1363947 0.7343892 0 0 128 63
-0.1635596 0.1387417 0.7325677 0 0 128 63
-0.1742497 0.1362903 0.7389263 0 0 128 63
-0.1723499 0.1380561 0.7374728 0 0 128 63
-0.1673406 0.1401433 0.7342649 0 0 128 63
-0.07911319 0.04825331 0.7125366 0 0 128 63
-0.08429286 0.04966643 0.7140169 0 0 128 63
-0.08077776 0.04995813 0.7138906 0 0 128 63
-0.08572245 0.05443081 0.7142098 0 0 128 63
-0.08347604 0.0545646 0.7145153 0 0 128 63
-0.09161028 0.05890615 0.7143591 0 0 128 63
-0.08882895 0.0589145 0.7143101 0 0 128 63
-0.09018686 0.06365157 0.7155358 0 0 128 63
-0.09350121 0.06584776 0.7160139 0 0 128 63
-0.09248456 0.067904 0.7138041 0 0 128 63
-0.09600249 0.07087476 0.7145908 0 0 128 63
-0.09412631 0.07191939 0.7148744 0 0 128 63
-0.09941208 0.07594723 0.7144208 0 0 128 63
-0.09606969 0.07659059 0.7147861 0 0 128 63
-0.1054793 0.07931944 0.7168711 0 0 128 63
-0.1018978 0.08029073 0.7147043 0 0 128 63
-0.09763944 0.08251738 0.7150208 0 0 128 63
-0.1031848 0.08490322 0.7153327 0 0 128 63
-0.09870446 0.08661842 0.7145423 0 0 128 63
-0.1043185 0.08968871 0.7159581 0 0 128 63
-0.1006145 0.09048489 0.7150189 0 0 128 63
-0.1063173 0.09450533 0.7153728 0 0 128 63
-0.1033087 0.0955018 0.7152513 0 0 128 63
-0.1079198 0.09909352 0.7149625 0 0 128 63
-0.1051231 0.1001584 0.715097 0 0 128 63
-0.1153362 0.1037865 0.7162347 0 0 128 63
-0.1104133 0.1037129 0.7158394 0 0 128 63
-0.1195218 0.1074852 0.7199152 0 0 128 63
-0.1167178 0.1066735 0.717207 0 0 128 63
-0.1118319 0.1082932 0.7162511 0 0 128 63
-0.1346925 0.1075656 0.7257499 0 0 128 63
-0.119817 0.1104844 0.7199257 0 0 128 63
-0.1178852 0.1118975 0.7182505 0 0 128 63
-0.1146009 0.1126294 0.7168414 0 0 128 63
-0.1362166 0.1114772 0.7256202 0 0 128 63
-0.1345196 0.112103 0.7245532 0 0 128 63
-0.1227071 0.1161822 0.7200981 0 0 128 63
-0.1190924 0.115848 0.7188118 0 0 128 63
-0.1162278 0.1163351 0.7165682 0 0 128 63
-0.1386453 0.1143894 0.7262211 0 0 128 63
-0.1343166 0.1171456 0.7249603 0 0 128 63
-0.1306311 0.118658 0.7243484 0 0 128 63
-0.1241881 0.1178006 0.7199221 0 0 128 63
-0.1433476 0.1192536 0.7290254 0 0 128 63
-0.1398596 0.1193073 0.7272641 0 0 128 63
-0.1348567 0.1207914 0.725817 0 0 128 63
-0.1304582 0.1231954 0.7231518 0 0 128 63
-0.145166 0.1228251 0.7297905 0 0 128 63
-0.1411188 0.1243054 0.7286285 0 0 128 63
-0.1514037 0.1267659 0.7304762 0 0 128 63
-0.1469173 0.1274135 0.7302591 0 0 128 63
-0.1426166 0.1292563 0.728232 0 0 128 63
-0.1573938 0.1307218 0.732356 0 0 128 63
-0.1533421 0.1308856 0.7317779 0 0 128 63
-0.1486549 0.1320834 0.7306335 0 0 128 63
-0.144764 0.1314468 0.7288569 0 0 128 63
-0.1685575 0.1325695 0.7379245 0 0 128 63
-0.1587191 0.1340526 0.7334222 0 0 128 63
-0.1542094 0.1355259 0.7329565 0 0 128 63
-0.1516927 0.1357085 0.7315555 0 0 128 63
-0.1688883 0.1359092 0.7372907 0 0 128 63
-0.160005 0.1385244 0.7344387 0 0 128 63
-0.1552255 0.1381336 0.73287 0 0 128 63
-0.1711571 0.1406645 0.7373573 0 0 128 63
-0.1679016 0.1418652 0.7353105 0 0 128 63
-0.1620621 0.1429711 0.734314 0 0 128 63
-0.1720732 0.1438062 0.7370871 0 0 128 63
-0.1683969 0.1454412 0.7359986 0 0 128 63
-0.1640751 0.1467947 0.7353891 0 0 128 63
-0.07487774 0.05043239 0.7155324 0 0 128 63
-0.08172986 0.05240906 0.7164218 0 0 128 63
-0.07843444 0.05256274 0.7161018 0 0 128 63
-0.07443276 0.05223242 0.7160166 0 0 128 63
-0.08286819 0.05602679 0.7169302 0 0 128 63
-0.07972041 0.05651515 0.7176964 0 0 128 63
-0.07710728 0.05731743 0.7162217 0 0 128 63
-0.08504331 0.06029681 0.7174516 0 0 128 63
-0.08194646 0.06309532 0.7174253 0 0 128 63
-0.08692378 0.06486183 0.7170646 0 0 128 63
-0.08353648 0.06634549 0.7169639 0 0 128 63
-0.08106273 0.06746884 0.7158854 0 0 128 63
-0.08875784 0.06911773 0.7161471 0 0 128 63
-0.08525595 0.07094289 0.7166555 0 0 128 63
-0.08226025 0.07054222 0.7157835 0 0 128 63
-0.09092638 0.07430657 0.7170998 0 0 128 63
-0.08740231 0.07524341 0.7172186 0 0 128 63
-0.09289113 0.0787944 0.7171839 0 0 128 63
-0.08924362 0.08016274 0.7172084 0 0 128 63
-0.09442416 0.08263745 0.716172 0 0 128 63
-0.09220439 0.0860449 0.7162122 0 0 128 63
-0.09562829 0.08807874 0.7152399 0 0 128 63
-0.0931434 0.0889088 0.7162543 0 0 128 63
-0.09833129 0.09277769 0.7162803 0 0 128 63
-0.094744 0.09286752 0.7165031 0 0 128 63
-0.09990501 0.09725554 0.7169917 0 0 128 63
-0.09730285 0.09918594 0.7169268 0 0 128 63
-0.1017422 0.1018611 0.7167329 0 0 128 63
-0.09845385 0.103397 0.7163574 0 0 128 63
-0.1041658 0.1061373 0.7172461 0 0 128 63
-0.09949857 0.107021 0.7159147 0 0 128 63
-0.109742 0.1107806 0.7173273 0 0 128 63
-0.106939 0.1106031 0.7178926 0 0 128 63
-0.1116252 0.1142898 0.7184572 0 0 128 63
-0.1085533 0.1150787 0.7188362 0 0 128 63
-0.1184997 0.1184636 0.720567 0 0 128 63
-0.1136347 0.1186137 0.7198444 0 0 128 63
-0.1239097 0.1211114 0.7244438 0 0 128 63
-0.1189958 0.1212923 0.7225809 0 0 128 63
-0.118035 0.1221017 0.7190446 0 0 128 63
-0.1349957 0.1234091 0.7278694 0 0 128 63
-0.1290018 0.1235858 0.7268359 0 0 128 63
-0.1259904 0.1249085 0.7255549 0 0 128 63
-0.1391123 0.1256722 0.7295381 0 0 128 63
-0.1358767 0.1261922 0.7282483 0 0 128 63
-0.1306666 0.1285377 0.7274571 0 0 128 63
-0.1276778 0.1297021 0.7258797 0 0 128 63
-0.1448914 0.1303045 0.7315269 0 0 128 63
-0.1408299 0.1300738 0.7306447 0 0 128 63
-0.1363236 0.1311595 0.7296695 0 0 128 63
-0.1325544 0.1315947 0.7274674 0 0 128 63
-0.1467059 0.1349611 0.7313725 0 0 128 63
-0.1429657 0.1346268 0.7309164 0 0 128 63
-0.1388555 0.134669 0.7306972 0 0 128 63
-0.1493989 0.1378877 0.7321125 0 0 128 63
-0.145441 0.1392223 0.7321442 0 0 128 63
-0.1555972 0.1409391 0.7347118 0 0 128 63
-0.1512454 0.1419592 0.7334732 0 0 128 63
-0.1473445 0.1429354 0.7332631 0 0 128 63
-0.1566355 0.1457865 0.7346736 0 0 128 63
-0.1523969 0.146853 0.7348403 0 0 128 63
-0.1615571 0.1487632 0.7360218 0 0 128 63
-0.1578448 0.1501459 0.7357175 0 0 128 63
-0.1540672 0.1515549 0.7347909 0 0 128 63
-0.1556375 0.1542565 0.7349803 0 0 128 63
-0.07238841 0.05494448 0.7187362 0 0 128 63
-0.07801664 0.05865618 0.7187098 0 0 128 63
-0.07484129 0.05831999 0.717806 0 0 128 63
-0.07976279 0.06105045 0.7193271 0 0 128 63
-0.07593447 0.06365892 0.7183627 0 0 128 63
-0.08110115 0.06657242 0.7184475 0 0 128 63
-0.07740897 0.06809411 0.7177137 0 0 128 63
-0.07944307 0.07289361 0.7175103 0 0 128 63
-0.08566609 0.07620081 0.7185669 0 0 128 63
-0.08175465 0.07705783 0.7166373 0 0 128 63
-0.07804325 0.07866668 0.7169562 0 0 128 63
-0.09030953 0.08000577 0.7201447 0 0 128 63
-0.08627596 0.08127212 0.7192115 0 0 128 63
-0.08256266 0.08208422 0.7176975 0 0 128 63
-0.07931474 0.0811547 0.716262 0 0 128 63
-0.08840111 0.08519589 0.7191211 0 0 128 63
-0.08400068 0.08715659 0.7181031 0 0 128 63
-0.08944926 0.09057582 0.7186596 0 0 128 63
-0.08678874 0.09196391 0.7188242 0 0 128 63
-0.09147772 0.09509888 0.7187015 0 0 128 63
-0.08840272 0.0965377 0.7183497 0 0 128 63
-0.09651485 0.0959314 0.7196169 0 0 128 63
-0.09367481 0.09921914 0.7187803 0 0 128 63
-0.08998549 0.101019 0.7182001 0 0 128 63
-0.09493026 0.1042743 0.7180618 0 0 128 63
-0.09244087 0.105418 0.718212 0 0 128 63
-0.1017041 0.1092493 0.7191756 0 0 128 63
-0.09762505 0.1091942 0.7181519 0 0 128 63
-0.09442818 0.1086361 0.7177262 0 0 128 63
-0.1031958 0.1117654 0.7197551 0 0 128 63
-0.099865 0.1132383 0.7192796 0 0 128 63
-0.1052417 0.1167848 0.7205281 0 0 128 63
-0.1011213 0.1165221 0.7198812 0 0 128 63
-0.1106274 0.1213348 0.7222086 0 0 128 63
-0.1076871 0.1206415 0.7214377 0 0 128 63
-0.118948 0.1244568 0.7263219 0 0 128 63
-0.1125706 0.1243712 0.7235739 0 0 128 63
-0.1085327 0.1244916 0.7226354 0 0 128 63
-0.1225661 0.1258295 0.7272607 0 0 128 63
-0.1192634 0.1279038 0.7267187 0 0 128 63
-0.1165483 0.1301986 0.7255684 0 0 128 63
-0.129376 0.1295072 0.7291659 0 0 128 63
-0.1241082 0.1309183 0.727629 0 0 128 63
-0.1204504 0.1324436 0.7268679 0 0 128 63
-0.1372627 0.1326699 0.7326483 0 0 128 63
-0.1311992 0.1341073 0.7290301 0 0 128 63
-0.126617 0.1352319 0.7274484 0 0 128 63
-0.1221816 0.1366759 0.7262001 0 0 128 63
-0.119161 0.1369042 0.7253462 0 0 128 63
-0.1404625 0.1375612 0.7331836 0 0 128 63
-0.1369075 0.1372381 0.7322965 0 0 128 63
-0.1329167 0.1379428 0.7302681 0 0 128 63
-0.1278405 0.1399043 0.7287592 0 0 128 63
-0.1420563 0.1399913 0.7334518 0 0 128 63
-0.138611 0.1417214 0.7336265 0 0 128 63
-0.1343069 0.1431841 0.7319834 0 0 128 63
-0.1486975 0.1451756 0.7357711 0 0 128 63
-0.1444669 0.1449925 0.7345032 0 0 128 63
-0.1407012 0.1460556 0.7338284 0 0 128 63
-0.1500257 0.1476949 0.7358744 0 0 128 63
-0.1463986 0.1494544 0.7355244 0 0 128 63
-0.1426615 0.1495401 0.7349414 0 0 128 63
-0.1511676 0.1525273 0.7360893 0 0 128 63
-0.148329 0.1544545 0.7360268 0 0 128 63
-0.1534405 0.1555692 0.7358003 0 0 128 63
-0.1501079 0.157217 0.7355396 0 0 128 63
-0.06979722 0.05665926 0.7205737 0 0 128 63
-0.0666531 0.05746735 0.7202313 0 0 128 63
-0.0711036 0.06001202 0.7204626 0 0 128 63
-0.06770179 0.06106322 0.7208257 0 0 128 63
-0.07215598 0.06271286 0.720373 0 0 128 63
-0.07079405 0.06519558 0.720031 0 0 128 63
-0.07177928 0.07101003 0.7204759 0 0 128 63
-0.07308152 0.07549029 0.7195075 0 0 128 63
-0.07044992 0.07890142 0.7190021 0 0 128 63
-0.07459503 0.08023474 0.7183306 0 0 128 63
-0.07159516 0.08067768 0.7180257 0 0 128 63
-0.07685527 0.08492639 0.7189982 0 0 128 63
-0.07866433 0.08952781 0.7188129 0 0 128 63
-0.08425829 0.0923497 0.71969 0 0 128 63
-0.0806478 0.09404496 0.7193868 0 0 128 63
-0.08586553 0.0970675 0.719409 0 0 128 63
-0.08251575 0.09897194 0.719851 0 0 128 63
-0.08753318 0.1021777 0.7190653 0 0 128 63
-0.08453172 0.1021657 0.7195414 0 0 128 63
-0.08854774 0.1069279 0.7205224 0 0 128 63
-0.08507395 0.1076569 0.7198926 0 0 128 63
-0.09544429 0.1122815 0.7208728 0 0 128 63
-0.09147248 0.1118476 0.7206962 0 0 128 63
-0.09638101 0.1150733 0.7210861 0 0 128 63
-0.09263334 0.1161149 0.7207489 0 0 128 63
-0.09957522 0.1194087 0.7216569 0 0 128 63
-0.09488788 0.1202809 0.7204865 0 0 128 63
-0.09356749 0.1223853 0.7185659 0 0 128 63
-0.105022 0.1233419 0.7233461 0 0 128 63
-0.1013936 0.1233918 0.7221527 0 0 128 63
-0.09704778 0.1243104 0.7213015 0 0 128 63
-0.1155062 0.1262922 0.7282802 0 0 128 63
-0.1123816 0.1274446 0.7263156 0 0 128 63
-0.1074523 0.1273852 0.723673 0 0 128 63
-0.1030001 0.1281239 0.7226423 0 0 128 63
-0.09931427 0.1290233 0.722373 0 0 128 63
-0.1161493 0.128524 0.7286649 0 0 128 63
-0.1134368 0.1300379 0.7262539 0 0 128 63
-0.1094409 0.1314455 0.7243384 0 0 128 63
-0.1053375 0.1325002 0.7232959 0 0 128 63
-0.118859 0.13379 0.7282642 0 0 128 63
-0.1150767 0.1342333 0.7266016 0 0 128 63
-0.1098839 0.1364816 0.7252889 0 0 128 63
-0.1205516 0.1399371 0.7284563 0 0 128 63
-0.116203 0.139357 0.7275533 0 0 128 63
-0.1123473 0.141081 0.726234 0 0 128 63
-0.1219512 0.1426242 0.7293319 0 0 128 63
-0.1173055 0.1437443 0.7284914 0 0 128 63
-0.1139281 0.1443509 0.7265233 0 0 128 63
-0.1354099 0.1436049 0.7351865 0 0 128 63
-0.1310036 0.1449453 0.7339053 0 0 128 63
-0.1277955 0.146119 0.7331329 0 0 128 63
-0.1242927 0.145215 0.7319003 0 0 128 63
-0.1372779 0.1479837 0.7361355 0 0 128 63
-0.1339652 0.1486666 0.7348549 0 0 128 63
-0.1429014 0.1522442 0.7367367 0 0 128 63
-0.139791 0.1522233 0.7359101 0 0 128 63
-0.136486 0.1523965 0.7355649 0 0 128 63
-0.1446638 0.1554947 0.7372835 0 0 128 63
-0.1413317 0.1569699 0.7373553 0 0 128 63
-0.1376801 0.1556159 0.7365875 0 0 128 63
-0.1456191 0.1592974 0.7385196 0 0 128 63
-0.06527701 0.06352355 0.7222766 0 0 128 63
-0.06244054 0.06361368 0.7218876 0 0 128 63
-0.0667538 0.06770466 0.723605 0 0 128 63
-0.06359211 0.06754243 0.7232955 0 0 128 63
-0.06835845 0.07146002 0.7225887 0 0 128 63
-0.06596896 0.07364259 0.7230934 0 0 128 63
-0.06753433 0.0780438 0.7211242 0 0 128 63
-0.06919375 0.08342197 0.7214079 0 0 128 63
-0.07400826 0.08703884 0.7212649 0 0 128 63
-0.07023644 0.08693223 0.7215812 0 0 128 63
-0.07211897 0.09151278 0.7206522 0 0 128 63
-0.07741937 0.09579327 0.7209748 0 0 128 63
-0.0743432 0.09632777 0.7207357 0 0 128 63
-0.07891122 0.09991268 0.7210677 0 0 128 63
-0.07589376 0.1012763 0.7213362 0 0 128 63
-0.08183533 0.1047109 0.7216846 0 0 128 63
-0.07799989 0.1059903 0.7222934 0 0 128 63
-0.08695439 0.1100648 0.7226442 0 0 128 63
-0.08335415 0.1094254 0.721191 0 0 128 63
-0.07991266 0.11034 0.7212341 0 0 128 63
-0.08771643 0.1120206 0.7225794 0 0 128 63
-0.08528057 0.1138609 0.7221097 0 0 128 63
-0.0820069 0.1146137 0.7223564 0 0 128 63
-0.09061953 0.1194712 0.7223325 0 0 128 63
-0.08666983 0.1176617 0.7233542 0 0 128 63
-0.09132499 0.1224447 0.7231514 0 0 128 63
-0.08941022 0.1225957 0.7238252 0 0 128 63
-0.09372702 0.1267794 0.7239731 0 0 128 63
-0.09124601 0.1255627 0.7223507 0 0 128 63
-0.0964784 0.131009 0.7250085 0 0 128 63
-0.1016086 0.1339166 0.7247434 0 0 128 63
-0.09872597 0.1352564 0.7248 0 0 128 63
-0.1042187 0.1387767 0.7263415 0 0 128 63
-0.100809 0.1389226 0.7259994 0 0 128 63
-0.1088924 0.1416339 0.7270835 0 0 128 63
-0.1057478 0.1432449 0.7281916 0 0 128 63
-0.1168829 0.1463732 0.7299479 0 0 128 63
-0.1119031 0.1469932 0.7281778 0 0 128 63
-0.1077581 0.1460718 0.7285878 0 0 128 63
-0.1250454 0.1481054 0.7350885 0 0 128 63
-0.1217386 0.148335 0.7334824 0 0 128 63
-0.1168049 0.1493179 0.7326751 0 0 128 63
-0.1316132 0.1516936 0.7369817 0 0 128 63
-0.1270507 0.1513181 0.7356206 0 0 128 63
-0.123177 0.1512497 0.7356402 0 0 128 63
-0.1332419 0.1551182 0.7382371 0 0 128 63
-0.1287189 0.1542653 0.7378943 0 0 128 63
-0.1373209 0.1589901 0.7402204 0 0 128 63
-0.135689 0.1582585 0.7386473 0 0 128 63
-0.1402256 0.1621232 0.7412567 0 0 128 63
-0.05885625 0.06628551 0.7247273 0 0 128 63
-0.06413057 0.07106083 0.7256346 0 0 128 63
-0.06059426 0.07009567 0.7252411 0 0 128 63
-0.0617356 0.07465123 0.7255359 0 0 128 63
-0.05887464 0.0748181 0.7253731 0 0 128 63
-0.06287152 0.07912158 0.7253194 0 0 128 63
-0.06481388 0.08415782 0.7249481 0 0 128 63
-0.06740746 0.08867545 0.7254412 0 0 128 63
-0.06843916 0.09534409 0.7249566 0 0 128 63
-0.07045218 0.09825971 0.7232027 0 0 128 63
-0.06886408 0.09987407 0.7240841 0 0 128 63
-0.07157421 0.10269 0.7242793 0 0 128 63
-0.07000309 0.1033787 0.7244266 0 0 128 63
-0.07414308 0.1074629 0.7240055 0 0 128 63
-0.07133973 0.106809 0.724313 0 0 128 63
-0.07580474 0.1123139 0.7242194 0 0 128 63
-0.08209333 0.1171613 0.724107 0 0 128 63
-0.07874236 0.1167245 0.724085 0 0 128 63
-0.08362097 0.1204543 0.7258723 0 0 128 63
-0.08064848 0.1208616 0.7256233 0 0 128 63
-0.08572659 0.1244017 0.7261003 0 0 128 63
-0.08311468 0.1265922 0.7258495 0 0 128 63
-0.08772361 0.1292384 0.7262383 0 0 128 63
-0.08391303 0.1286411 0.7257816 0 0 128 63
-0.09347469 0.1323763 0.7265422 0 0 128 63
-0.09004936 0.133274 0.726317 0 0 128 63
-0.09532839 0.1371338 0.7263846 0 0 128 63
-0.09194404 0.1379825 0.7273229 0 0 128 63
-0.097489 0.1414582 0.7282403 0 0 128 63
-0.09449902 0.140889 0.7273479 0 0 128 63
-0.1029813 0.1453047 0.7293528 0 0 128 63
-0.09942615 0.1451236 0.7296712 0 0 128 63
-0.106026 0.1490022 0.7309247 0 0 128 63
-0.1162946 0.152008 0.7340693 0 0 128 63
-0.11184 0.1525478 0.7326986 0 0 128 63
-0.1085077 0.1519471 0.7316293 0 0 128 63
-0.1214236 0.1541996 0.7370758 0 0 128 63
-0.1170929 0.1546874 0.734512 0 0 128 63
-0.1130539 0.1549571 0.733348 0 0 128 63
-0.127747 0.1574392 0.7396192 0 0 128 63
-0.1223603 0.1586252 0.7385817 0 0 128 63
-0.132718 0.1611741 0.7413574 0 0 128 63
-0.1285347 0.161424 0.7409595 0 0 128 63
-0.1246838 0.1616431 0.7397339 0 0 128 63
-0.1346486 0.1646803 0.7423603 0 0 128 63
-0.130603 0.1652119 0.7420568 0 0 128 63
-0.1345432 0.1684454 0.7433945 0 0 128 63
-0.05517903 0.07169595 0.7279574 0 0 128 63
-0.05636644 0.07704639 0.7272327 0 0 128 63
-0.05781594 0.08172178 0.7273834 0 0 128 63
-0.05990678 0.08603346 0.7269363 0 0 128 63
-0.06537238 0.09049921 0.7273859 0 0 128 63
-0.06235138 0.09080175 0.7278415 0 0 128 63
-0.06353766 0.09567524 0.72772 0 0 128 63
-0.05960047 0.09838784 0.7258416 0 0 128 63
-0.06458578 0.1001603 0.7268531 0 0 128 63
-0.06230718 0.103674 0.7260152 0 0 128 63
-0.06640235 0.1051298 0.7259324 0 0 128 63
-0.06312367 0.1057695 0.7259457 0 0 128 63
-0.06868032 0.1098464 0.7262518 0 0 128 63
-0.06526467 0.1112643 0.7257636 0 0 128 63
-0.07170299 0.1139111 0.7274288 0 0 128 63
-0.07575089 0.1171351 0.7265033 0 0 128 63
-0.0731658 0.118087 0.7280732 0 0 128 63
-0.07847109 0.1226932 0.7266181 0 0 128 63
-0.07529429 0.1229765 0.7276251 0 0 128 63
-0.08029863 0.1262749 0.7273131 0 0 128 63
-0.07723573 0.1279927 0.7281488 0 0 128 63
-0.08190736 0.1312757 0.7278355 0 0 128 63
-0.08728996 0.1363128 0.7280599 0 0 128 63
-0.08420768 0.1357499 0.7285271 0 0 128 63
-0.088898 0.139947 0.7289725 0 0 128 63
-0.08594996 0.1399914 0.7293475 0 0 128 63
-0.09191185 0.1438972 0.7305949 0 0 128 63
-0.08729523 0.1431359 0.7298889 0 0 128 63
-0.09615397 0.1475789 0.7315922 0 0 128 63
-0.09299189 0.1473194 0.7319424 0 0 128 63
-0.1028011 0.1513819 0.7333377 0 0 128 63
-0.09845644 0.1510679 0.7330471 0 0 128 63
-0.1082049 0.1551216 0.7347603 0 0 128 63
-0.104919 0.1549262 0.7347792 0 0 128 63
-0.1012252 0.1544551 0.7346453 0 0 128 63
-0.1186693 0.1575467 0.7398114 0 0 128 63
-0.1168511 0.1582173 0.7386683 0 0 128 63
-0.1105072 0.1579314 0.7360925 0 0 128 63
-0.1069219 0.1586386 0.7366987 0 0 128 63
-0.120266 0.1616445 0.7396756 0 0 128 63
-0.1166177 0.1613318 0.740399 0 0 128 63
-0.1123763 0.1607886 0.7385352 0 0 128 63
-0.1265497 0.1640137 0.7424867 0 0 128 63
-0.1224442 0.1644753 0.7417589 0 0 128 63
-0.1187109 0.1644629 0.7416373 0 0 128 63
-0.1322464 0.1681972 0.7445402 0 0 128 63
-0.1282687 0.1676239 0.7438028 0 0 128 63
-0.1246625 0.1679527 0.7426029 0 0 128 63
-0.1327544 0.169501 0.744497 0 0 128 63
-0.1295855 0.1707234 0.7452025 0 0 128 63
-0.05181715 0.07490381 0.7308421 0 0 128 63
-0.05162624 0.07735575 0.7313047 0 0 128 63
-0.05840617 0.0922683 0.7303373 0 0 128 63
-0.05631801 0.0930141 0.730026 0 0 128 63
-0.06018141 0.09580012 0.7291075 0 0 128 63
-0.05804983 0.09685255 0.7277026 0 0 128 63
-0.05977568 0.1026129 0.7272322 0 0 128 63
-0.05988157 0.1074375 0.7284396 0 0 128 63
-0.06739551 0.1163622 0.7309005 0 0 128 63
-0.06334373 0.1154582 0.7300981 0 0 128 63
-0.0695422 0.120234 0.7314648 0 0 128 63
-0.07137594 0.1248642 0.7311724 0 0 128 63
-0.07342514 0.1290267 0.7307485 0 0 128 63
-0.07748112 0.1332742 0.7316439 0 0 128 63
-0.07506719 0.1329627 0.7327418 0 0 128 63
-0.07963249 0.1375634 0.734084 0 0 128 63
-0.08460912 0.1421259 0.73101 0 0 128 63
-0.08854929 0.1453594 0.7323477 0 0 128 63
-0.08507556 0.1464752 0.7339215 0 0 128 63
-0.09065905 0.1494052 0.7342438 0 0 128 63
-0.08734667 0.1504827 0.7351007 0 0 128 63
-0.09676132 0.1541008 0.7346487 0 0 128 63
-0.09180957 0.1545096 0.7358935 0 0 128 63
-0.08977801 0.1567225 0.7348939 0 0 128 63
-0.1031044 0.1580458 0.7371086 0 0 128 63
-0.09834222 0.1571105 0.7361631 0 0 128 63
-0.09346083 0.1583467 0.7364842 0 0 128 63
-0.1036373 0.1612691 0.7387244 0 0 128 63
-0.09945366 0.1617448 0.7382244 0 0 128 63
-0.1137631 0.1637927 0.7426186 0 0 128 63
-0.1100807 0.1641248 0.7410506 0 0 128 63
-0.1061684 0.1646312 0.741806 0 0 128 63
-0.1198138 0.16815 0.7459823 0 0 128 63
-0.1158975 0.1672247 0.743885 0 0 128 63
-0.1111816 0.168382 0.7435963 0 0 128 63
-0.1204243 0.171265 0.7467156 0 0 128 63
-0.1162786 0.171128 0.745676 0 0 128 63
-0.1268178 0.172414 0.7463974 0 0 128 63
-0.1234633 0.1738068 0.7470387 0 0 128 63
-0.04787394 0.07925154 0.7337005 0 0 128 63
-0.06238282 0.1183186 0.7314017 0 0 128 63
-0.06773773 0.1227955 0.7339741 0 0 128 63
-0.06348741 0.121823 0.7329052 0 0 128 63
-0.05916852 0.1228801 0.7324323 0 0 128 63
-0.06740656 0.1262327 0.7360578 0 0 128 63
-0.07379624 0.1357527 0.7371871 0 0 128 63
-0.07788336 0.1386501 0.7357813 0 0 128 63
-0.07515705 0.1392452 0.7370714 0 0 128 63
-0.08025208 0.1428381 0.7352929 0 0 128 63
-0.07733434 0.1448331 0.7368862 0 0 128 63
-0.08196959 0.1479784 0.7356327 0 0 128 63
-0.07815084 0.1469285 0.7368168 0 0 128 63
-0.08703607 0.1508484 0.736006 0 0 128 63
-0.08405522 0.1518416 0.7368684 0 0 128 63
-0.08803186 0.154567 0.7368004 0 0 128 63
-0.08556131 0.1552732 0.7387822 0 0 128 63
-0.09229955 0.1601828 0.7377352 0 0 128 63
-0.09759608 0.1640828 0.7400292 0 0 128 63
-0.09549889 0.1618938 0.7378819 0 0 128 63
-0.104325 0.1669756 0.7422753 0 0 128 63
-0.09983698 0.1674158 0.7427502 0 0 128 63
-0.1085169 0.1700193 0.7440853 0 0 128 63
-0.1048881 0.1709069 0.7444027 0 0 128 63
-0.1161298 0.17375 0.7465847 0 0 128 63
-0.1118625 0.1734646 0.7456317 0 0 128 63
-0.1206223 0.1758486 0.7480313 0 0 128 63
-0.1169545 0.1769049 0.7481208 0 0 128 63
-0.1126948 0.1771143 0.7480973 0 0 128 63
-0.06102863 0.12488 0.7352723 0 0 128 63
-0.05822086 0.125383 0.7336364 0 0 128 63
-0.06546068 0.1281352 0.7376444 0 0 128 63
-0.06237587 0.1278681 0.7375954 0 0 128 63
-0.0669474 0.1330083 0.7397391 0 0 128 63
-0.06452784 0.1320123 0.7389094 0 0 128 63
-0.06953272 0.1369106 0.7395864 0 0 128 63
-0.07252464 0.140829 0.7393333 0 0 128 63
-0.07364801 0.145847 0.7387188 0 0 128 63
-0.07596424 0.1503249 0.7390721 0 0 128 63
-0.08193856 0.1550069 0.7399923 0 0 128 63
-0.07854679 0.153486 0.7400827 0 0 128 63
-0.08394784 0.1581677 0.7412748 0 0 128 63
-0.08895957 0.162728 0.7428674 0 0 128 63
-0.08611301 0.1625037 0.7431301 0 0 128 63
-0.09405044 0.166317 0.744158 0 0 128 63
-0.09136391 0.1649531 0.7432352 0 0 128 63
-0.0964433 0.1695647 0.745322 0 0 128 63
-0.09247109 0.1681475 0.745185 0 0 128 63
-0.1027659 0.17329 0.7459987 0 0 128 63
-0.09935044 0.1727934 0.745938 0 0 128 63
-0.1082202 0.1762035 0.7490049 0 0 128 63
-0.1044638 0.1752386 0.7482989 0 0 128 63
-0.10113 0.1761382 0.7479095 0 0 128 63
-0.1134263 0.1804413 0.7523297 0 0 128 63
-0.1118807 0.1806372 0.750868 0 0 128 63
-0.1122132 0.1832347 0.7521582 0 0 128 63
-0.06063566 0.1301056 0.740373 0 0 128 63
-0.0630815 0.1338053 0.741179 0 0 128 63
-0.06663463 0.1364245 0.7412957 0 0 128 63
-0.06531689 0.1386529 0.7412052 0 0 128 63
-0.06881192 0.1420124 0.7411106 0 0 128 63
-0.06690601 0.1430047 0.7421653 0 0 128 63
-0.06920683 0.1453516 0.7428349 0 0 128 63
-0.06857529 0.1472888 0.7420234 0 0 128 63
-0.07196477 0.1524297 0.7426003 0 0 128 63
-0.07586408 0.1556528 0.743144 0 0 128 63
-0.08015084 0.1597044 0.7440822 0 0 128 63
-0.08301118 0.1632424 0.745151 0 0 128 63
-0.08830062 0.166886 0.7455673 0 0 128 63
-0.0946587 0.1725298 0.7476222 0 0 128 63
-0.09090659 0.1707001 0.7474387 0 0 128 63
-0.09646571 0.1759628 0.7486908 0 0 128 63
-0.1027089 0.1788051 0.7521783 0 0 128 63
-0.09836178 0.1778595 0.7494841 0 0 128 63
-0.1079494 0.1797176 0.7530386 0 0 128 63
-0.05504337 0.1328474 0.743856 0 0 128 63
-0.06016251 0.1350688 0.7433645 0 0 128 63
-0.05712408 0.1357523 0.7444648 0 0 128 63
-0.06188574 0.1391835 0.7438737 0 0 128 63
-0.06359905 0.1445598 0.7449421 0 0 128 63
-0.06611553 0.1491781 0.7452724 0 0 128 63
-0.06967774 0.152612 0.747132 0 0 128 63
-0.06823185 0.1512963 0.7455108 0 0 128 63
-0.06413013 0.1546225 0.7436527 0 0 128 63
-0.07442454 0.1575105 0.7450143 0 0 128 63
-0.07879025 0.161599 0.7463734 0 0 128 63
-0.07594553 0.1609548 0.7466232 0 0 128 63
-0.08047619 0.1654191 0.7479798 0 0 128 63
-0.07711807 0.1643541 0.7482874 0 0 128 63
-0.08579767 0.168672 0.7484308 0 0 128 63
-0.08253548 0.1687812 0.7495502 0 0 128 63
-0.08790785 0.1735786 0.7501178 0 0 128 63
-0.08436522 0.1722796 0.7502667 0 0 128 63
-0.090767 0.1765195 0.7513794 0 0 128 63
-0.09655023 0.1807246 0.7536196 0 0 128 63
-0.0931412 0.1803336 0.7530388 0 0 128 63
-0.1051947 0.1826192 0.7563666 0 0 128 63
-0.1018225 0.183013 0.7566797 0 0 128 63
-0.106741 0.1863778 0.7589001 0 0 128 63
-0.05465579 0.130854 0.746649 0 0 128 63
-0.05279717 0.1315395 0.7454804 0 0 128 63
-0.05376953 0.1381218 0.7461466 0 0 128 63
-0.05828047 0.1410109 0.7469075 0 0 128 63
-0.0553205 0.1417935 0.7476 0 0 128 63
-0.05875769 0.1462702 0.7497584 0 0 128 63
-0.05698305 0.1452737 0.7490441 0 0 128 63
-0.06179973 0.1504865 0.7480493 0 0 128 63
-0.0598157 0.1513806 0.7479242 0 0 128 63
-0.06607565 0.1546542 0.7481791 0 0 128 63
-0.06877938 0.1591434 0.7515654 0 0 128 63
-0.06608835 0.1595852 0.7486649 0 0 128 63
-0.06282547 0.160268 0.7485473 0 0 128 63
-0.07286161 0.1628627 0.7491438 0 0 128 63
-0.06880602 0.1630599 0.7490268 0 0 128 63
-0.07424539 0.1673737 0.7509099 0 0 128 63
-0.06894448 0.1669586 0.7502187 0 0 128 63
-0.0799835 0.170868 0.7517332 0 0 128 63
-0.07637617 0.1717677 0.752668 0 0 128 63
-0.08152923 0.1753598 0.7536319 0 0 128 63
-0.08799583 0.1794649 0.7543491 0 0 128 63
-0.08377156 0.1782233 0.7546974 0 0 128 63
-0.09363195 0.1833029 0.7560666 0 0 128 63
-0.08878875 0.1826396 0.756328 0 0 128 63
-0.1001456 0.184981 0.7580081 0 0 128 63
-0.0958803 0.1856838 0.757439 0 0 128 63
-0.09197053 0.1878648 0.7575471 0 0 128 63
-0.1061956 0.1865132 0.7608967 0 0 128 63
-0.1017642 0.1886613 0.7594378 0 0 128 63
-0.09690353 0.1905434 0.7593223 0 0 128 63
-0.05318436 0.1447655 0.7506054 0 0 128 63
-0.05800125 0.1468919 0.751523 0 0 128 63
-0.05483937 0.1485509 0.7514483 0 0 128 63
-0.05592725 0.1512482 0.7516692 0 0 128 63
-0.07118979 0.1698284 0.7530547 0 0 128 63
-0.06877407 0.1700803 0.7516912 0 0 128 63
-0.07333264 0.1728372 0.7534781 0 0 128 63
-0.07013193 0.1732467 0.7516531 0 0 128 63
-0.0758144 0.1770076 0.7555445 0 0 128 63
-0.07182401 0.1773401 0.7538935 0 0 128 63
-0.08179721 0.1808401 0.7572567 0 0 128 63
-0.08713868 0.185143 0.7579278 0 0 128 63
-0.08468017 0.1849544 0.758972 0 0 128 63
-0.09310582 0.1895462 0.7600737 0 0 128 63
-0.08940539 0.1883225 0.7598288 0 0 128 63
-0.09243801 0.1913903 0.7592652 0 0 128 63
-0.07364503 0.1791846 0.7575246 0 0 128 63
-0.08168557 0.1831528 0.7601194 0 0 128 63
