# .PCD v0.7 - Point Cloud Data file format
VERSION 0.7
FIELDS x y z rgb
SIZE 4 4 4 4
TYPE F F F F
COUNT 1 1 1 1
WIDTH 1024
HEIGHT 1
VIEWPOINT 0 0 0 1 0 0 0
POINTS 1024
DATA ascii
0.05660826 0.37757844 0.96383333 4.3295835e-039
0.064156465 0.37325212 0.96428573 4.1466271e-039
0.071834289 0.3702229 0.96700007 4.1462726e-039
0.04754338 0.38584745 0.96336359 4.4206903e-039
0.054000527 0.38283935 0.96545464 4.237748e-039
0.03780305 0.39747167 0.96340007 4.3281527e-039
0.043520004 0.39379382 0.9653334 4.9713403e-039
0.029318098 0.40862098 0.96200007 4.0533175e-039
0.034944769 0.40574014 0.9655385 4.7880407e-039
0.029379049 0.41130668 0.96400005 6.3549992e-039
0.034075242 0.41074479 0.96700007 9.1237394e-039
-0.050297145 0.10990857 0.97800004 2.341769e-038
-0.044087619 0.1095981 0.9780001 2.341769e-038
-0.034839876 0.10773537 0.97633338 2.341769e-038
-0.024880264 0.10593118 0.97418189 2.341769e-038
-0.014933154 0.10505044 0.97414309 2.341769e-038
-0.006051329 0.1047211 0.97357899 2.341769e-038
0.0042723808 0.10390811 0.97505009 2.341769e-038
0.015407905 0.10561057 0.97450018 2.3141103e-038
0.024565132 0.10544747 0.97573918 2.2956712e-038
0.035548571 0.1063307 0.97372216 2.277196e-038
0.04391399 0.10799151 0.97623098 2.1938963e-038
0.05495429 0.10990857 0.9780001 2.0186886e-038
0.063337147 0.10990857 0.97800004 1.8618473e-038
-0.072131433 0.11866572 0.9772501 2.341769e-038
-0.064821996 0.11731307 0.97481817 2.341769e-038
-0.05522972 0.11379087 0.97300011 2.341769e-038
-0.045540225 0.11242785 0.97130787 2.341769e-038
-0.035573762 0.11185609 0.97155559 2.341769e-038
-0.028638095 0.11085714 0.97000003 2.341769e-038
0.038800001 0.11085714 0.97000003 2.1388667e-038
0.04576055 0.11189388 0.97214293 2.156982e-038
0.055496659 0.11405086 0.97260869 2.0278002e-038
0.064294666 0.11576144 0.97555012 1.7971668e-038
0.07218571 0.11875714 0.97800004 1.6864958e-038
-0.083023809 0.12383525 0.9740001 2.341769e-038
-0.075414836 0.1221958 0.97414309 2.341769e-038
-0.068361901 0.12009525 0.97000003 2.341769e-038
0.05912381 0.12009525 0.97000003 1.861705e-038
0.065437831 0.1221471 0.97164303 1.6588381e-038
0.074004292 0.12493413 0.97533345 1.48381e-038
0.080102861 0.12853715 0.97800004 1.3177523e-038
0.077771835 0.13345061 0.97214293 1.2531774e-038
0.084544361 0.13562039 0.97595674 1.1516905e-038
0.086555995 0.14435059 0.97226322 9.8580983e-039
0.093672499 0.14603323 0.9774375 9.2123659e-039
0.088685714 0.15242857 0.97000003 8.6609816e-039
0.094869599 0.15461498 0.9738217 8.2911159e-039
0.1005943 0.15648 0.97800004 8.0156038e-039
0.095847033 0.16516702 0.97257894 7.8297874e-039
0.1005943 0.16486287 0.9780001 7.8294189e-039
0.097267546 0.17534633 0.97181809 8.0130941e-039
0.10197935 0.1752066 0.97615391 7.9219508e-039
0.097344525 0.1842812 0.97112501 7.6453919e-039
0.10301218 0.18468994 0.97556549 7.6453849e-039
0.099771433 0.19215238 0.97000003 7.0915007e-039
0.103733 0.19466771 0.97438896 7.5528376e-039
0.10534431 0.20525378 0.97432005 7.368798e-039
0.10748719 0.21496107 0.9738335 7.3677232e-039
0.1085402 0.22503944 0.97240013 7.2755304e-039
0.11177144 0.22540572 0.9780001 7.3673729e-039
0.10840064 0.235516 0.97188884 7.0907776e-039
0.11177144 0.23472002 0.9780001 7.0907874e-039
0.10743758 0.24450669 0.97246683 6.7234146e-039
0.11258702 0.2453195 0.97772729 6.7223692e-039
0.1082819 0.25450477 0.97175014 6.4454012e-039
0.11253144 0.25482002 0.97650003 6.6294421e-039
0.10844985 0.26280415 0.97049999 5.9848028e-039
0.11229625 0.26515812 0.97507691 5.8011192e-039
0.11468683 0.27464607 0.97388244 5.6181615e-039
0.11692977 0.2848863 0.97437507 6.076983e-039
0.1169832 0.29522958 0.97482365 5.7103543e-039
0.1161981 0.3051686 0.97427779 6.3539216e-039
0.11419984 0.31395382 0.97483337 6.3542902e-039
0.10821769 0.32650065 0.97000015 6.3532308e-039
0.11232127 0.32500383 0.97377777 6.5376123e-039
0.099771433 0.33996192 0.97000003 5.9855035e-039
0.10660096 0.33566302 0.97207153 5.9865769e-039
0.11237943 0.33267087 0.97680008 6.5376038e-039
0.097100005 0.34586191 0.97100008 5.6167181e-039
0.10508934 0.34563184 0.97480005 5.8004003e-039
0.11232626 0.34754643 0.97128588 4.422142e-039
0.087019049 0.35855937 0.97200006 5.4319737e-039
0.093866937 0.35344437 0.97442865 5.1568162e-039
0.10647185 0.35255021 0.97342861 4.8802447e-039
0.11085714 0.35197145 0.97000003 4.4210644e-039
0.078350797 0.36738417 0.97166669 4.7880603e-039
0.086162634 0.36576971 0.9752382 5.1550351e-039
0.09190096 0.3682248 0.97800004 5.2483196e-039
0.066187046 0.3778865 0.97060007 4.3295793e-039
0.074462861 0.37369478 0.97424996 4.3288716e-039
0.084433772 0.37259844 0.97718179 4.7876917e-039
0.091807626 0.37094861 0.97700012 3.2221695e-039
0.056554019 0.38687131 0.97114295 4.3285073e-039
0.063953333 0.3846381 0.97600001 4.0522721e-039
0.048111431 0.39569589 0.9715001 4.418884e-039
0.054498252 0.39466619 0.97421062 5.8036247e-039
0.038880002 0.40731621 0.97200006 6.7245272e-039
0.044157896 0.40454468 0.97447377 6.8167033e-039
0.050142858 0.40114287 0.97500002 8.1113853e-039
0.03459556 0.41391116 0.97300005 9.8595094e-039
0.041448258 0.41076574 0.97433341 1.0874742e-038
-0.023814922 0.099326029 0.98699999 2.341769e-038
-0.014563017 0.098177955 0.98650014 2.341769e-038
-0.0056415237 0.097764201 0.98706686 2.341769e-038
0.0047031748 0.09777946 0.98722237 2.341769e-038
0.014586828 0.098344922 0.98816681 2.341769e-038
0.024464764 0.098799042 0.98800004 2.3048547e-038
0.034821905 0.098815873 0.98816675 2.2771602e-038
0.042385712 0.0998419 0.98900002 2.2586131e-038
-0.062518097 0.10884 0.98860008 2.341769e-038
-0.054157231 0.10779187 0.9865455 2.341769e-038
-0.044869643 0.10625095 0.98406261 2.341769e-038
-0.035350889 0.10338572 0.98435724 2.341769e-038
-0.026030287 0.10242801 0.98310006 2.341769e-038
-0.01496 0.10096457 0.98159999 2.341769e-038
-0.0056102858 0.10096458 0.98160011 2.341769e-038
0.0056114285 0.10133829 0.98159999 2.341769e-038
0.014172246 0.10161307 0.98271435 2.341769e-038
0.026201429 0.10152429 0.98250002 2.3233299e-038
0.035581145 0.10205372 0.98310012 2.2679766e-038
0.045592275 0.10376236 0.98523545 2.2031517e-038
0.054494843 0.10569525 0.98654175 2.0462392e-038
0.063736722 0.10783323 0.98744446 1.9078376e-038
0.071584761 0.10926095 0.98900002 1.788127e-038
-0.080594286 0.11995429 0.98400003 2.341769e-038
-0.074964821 0.11625008 0.98535305 2.341769e-038
-0.065921485 0.11308995 0.98411125 2.341769e-038
-0.056757856 0.11094643 0.98100001 2.341769e-038
0.068426944 0.11279348 0.9822858 1.8340444e-038
0.074560307 0.11533783 0.9850527 1.7050075e-038
0.081945717 0.11868001 0.98900002 1.4928857e-038
-0.081282854 0.12145714 0.98100007 2.341769e-038
0.078720003 0.12182476 0.98400009 1.4745548e-038
0.084380381 0.12529609 0.98692328 1.3546641e-038
0.091364771 0.12904096 0.98900002 1.151869e-038
0.08805307 0.13301389 0.98357153 1.1610175e-038
0.09446805 0.135949 0.98750007 1.0411629e-038
0.10172572 0.13940191 0.98900002 8.8468176e-039
0.097036056 0.14320409 0.9837144 9.213082e-039
0.10282668 0.14608398 0.98750013 8.4758757e-039
0.10404979 0.15488091 0.98600018 8.1989202e-039
0.10627428 0.16473472 0.98586369 8.0134542e-039
0.11114477 0.16954286 0.98900002 8.6570285e-039
0.10688891 0.17413832 0.98446679 8.197837e-039
0.11114477 0.17566523 0.98900002 8.2889607e-039
0.10854287 0.18432954 0.98250002 7.8294217e-039
0.11095747 0.18524095 0.98733342 7.6450318e-039
0.10837715 0.19526574 0.98100007 7.5524774e-039
0.1128551 0.19662361 0.98746169 7.7365086e-039
0.11422397 0.20521462 0.9850418 7.3684393e-039
0.11560076 0.21521449 0.98680001 7.1844152e-039
0.11560526 0.22426552 0.98623097 7.2758863e-039
0.11611772 0.23522733 0.98533356 6.8152543e-039
0.11691239 0.24413161 0.98466676 6.6305141e-039
0.11699571 0.25457621 0.98275012 6.6297953e-039
0.12108339 0.25596699 0.98811108 6.6301554e-039
0.11776496 0.26534134 0.98240012 6.1698891e-039
0.1227233 0.26564157 0.98845458 6.5372479e-039
0.11921144 0.27423677 0.9822858 6.0773446e-039
0.12425178 0.2751615 0.98747075 6.3528553e-039
0.11958858 0.28028572 0.98100007 5.89151e-039
0.12480307 0.28487596 0.98621738 6.4450453e-039
0.125034 0.29503813 0.986 6.4450495e-039
0.12399176 0.30495888 0.98626685 6.6294421e-039
0.11804953 0.3171486 0.98200005 6.5379766e-039
0.12453556 0.31477928 0.98727787 6.3539441e-039
0.11729651 0.32422984 0.98266679 6.5376094e-039
0.12166116 0.32530513 0.98720008 6.6298009e-039
0.11579953 0.33448976 0.98449999 6.3535727e-039
0.12126001 0.33088002 0.98700005 6.4454026e-039
0.10791001 0.34662002 0.98100007 5.5256169e-039
0.11247083 0.34595013 0.987091 5.1582721e-039
0.09708 0.35697645 0.98250002 5.6170727e-039
0.10393379 0.35555431 0.98523092 5.4330612e-039
0.11585429 0.35038859 0.98900002 4.6058046e-039
0.09612456 0.36544332 0.98608696 4.9717257e-039
0.10172572 0.36169142 0.98900002 4.6980114e-039
0.075988583 0.37745148 0.98100013 4.513616e-039
0.067995712 0.38827288 0.98475003 4.7887497e-039
0.074044764 0.38358396 0.98407149 5.4344891e-039
0.08288762 0.38052952 0.98900002 5.523798e-039
0.059885718 0.39393717 0.98250008 4.7912426e-039
0.065730587 0.39289293 0.98588902 6.7262901e-039
0.072212696 0.39246032 0.98900002 9.8595318e-039
-0.031365715 0.09884952 0.99800003 2.341769e-038
-0.024411431 0.097908303 0.99671435 2.341769e-038
-0.015187049 0.096071623 0.99680007 2.341769e-038
-0.0057005719 0.094933338 0.99680007 2.341769e-038
0.005406803 0.094286278 0.99285722 2.341769e-038
0.015604984 0.094510779 0.99546158 2.341769e-038
0.024638098 0.094758101 0.995 2.3325494e-038
0.035049524 0.094726354 0.99466664 2.2679766e-038
0.045514293 0.096712016 0.99560004 2.2493217e-038
0.054268032 0.098221511 0.99714297 2.2216264e-038
-0.071801908 0.10959239 0.99200004 2.341769e-038
-0.065648988 0.10806504 0.99285722 2.341769e-038
-0.054560319 0.10534063 0.99350011 2.341769e-038
-0.044829212 0.10292032 0.9945001 2.341769e-038
-0.036012381 0.10091999 0.99500006 2.341769e-038
0.047238097 0.10014477 0.99200004 2.1756006e-038
0.055655789 0.10077116 0.99285716 2.1108835e-038
0.064501666 0.10457215 0.99593753 1.9539713e-038
0.074396357 0.10811302 0.99725008 1.8432644e-038
0.0816181 0.10913906 0.99650002 1.7416698e-038
-0.081249528 0.11809524 0.99200004 2.341769e-038
-0.07563667 0.11345572 0.99275005 2.341769e-038
0.078314021 0.11272763 0.99585724 1.6957522e-038
0.084498458 0.11594476 0.99687505 1.5941932e-038
0.091245711 0.11976 0.99800003 1.4652288e-038
0.08835493 0.12180319 0.99400008 1.4374619e-038
0.094566762 0.1251021 0.99589986 1.2531765e-038
0.10075048 0.12926476 0.99800003 1.105556e-038
0.09721797 0.13232301 0.99242866 1.059566e-038
0.10217423 0.13569216 0.99476928 9.5829449e-039
0.10680191 0.14471619 0.99533337 8.752101e-039
0.11025524 0.14827429 0.99800003 8.9346944e-039
0.10865389 0.15541092 0.99328578 8.1982028e-039
0.11120572 0.15492761 0.99800009 8.2903984e-039
0.11262582 0.16525038 0.99466676 8.0134514e-039
0.11453126 0.17455308 0.99609089 8.0138087e-039
0.11473421 0.18460695 0.99636364 7.7368715e-039
0.11654095 0.19383958 0.99546158 7.6453905e-039
0.11916001 0.20238096 0.99300003 7.6443087e-039
0.12129524 0.2084724 0.99500006 7.4599217e-039
0.12201694 0.21626054 0.99400002 7.1847711e-039
0.11904 0.2257981 0.99200004 7.1836879e-039
0.12209953 0.22499192 0.99575007 7.2755262e-039
0.11904 0.23146668 0.99200004 7.1843998e-039
0.12184698 0.23611239 0.99433339 6.9992925e-039
0.12373424 0.24546322 0.99452633 6.9060262e-039
0.12520558 0.25419196 0.99476922 6.5379668e-039
0.12766203 0.26439783 0.99607152 6.5376094e-039
0.13116571 0.26898476 0.99800003 6.7212804e-039
0.12823746 0.27348733 0.99250007 6.721628e-039
0.13183534 0.27569103 0.99666673 6.8138264e-039
0.13177888 0.28511277 0.99609101 6.8134705e-039
0.1319378 0.2951175 0.99425 6.906015e-039
0.12848762 0.30610284 0.99200004 6.7216364e-039
0.13285562 0.30493093 0.99640006 6.813832e-039
0.12848762 0.31618035 0.99200004 6.3546209e-039
0.13102257 0.31381685 0.99450004 6.5383213e-039
0.12701222 0.32581368 0.99399996 6.2620932e-039
0.13116571 0.32126096 0.99800003 6.5393415e-039
0.11928001 0.33701527 0.99400008 6.2610142e-039
0.12391654 0.33554754 0.99527276 5.7085578e-039
0.11716524 0.34603336 0.9961251 5.1582707e-039
0.12261143 0.34217143 0.99800003 5.707469e-039
0.11785905 0.3516762 0.99800003 4.5154054e-039
0.10438477 0.36576471 0.99309093 4.0526378e-039
0.11025524 0.36498284 0.99800003 4.2359515e-039
0.077701904 0.38757908 0.995 5.9890908e-039
-0.0047809528 0.089881912 1.0040001 2.341769e-038
0.036335241 0.089881919 1.0040001 2.2679046e-038
-0.043349765 0.098910242 1.005875 2.341769e-038
-0.035113573 0.098173574 1.0032501 2.341769e-038
-0.02415381 0.095414296 1.0043751 2.341769e-038
-0.015731135 0.093345225 1.0033077 2.341769e-038
-0.0055706352 0.092154786 1.0027502 2.341769e-038
0.0038238831 0.09221144 1.0037693 2.341769e-038
0.015743071 0.091063716 1.0053334 2.341769e-038
0.024860954 0.090835243 1.0040001 2.3325494e-038
0.033598375 0.09124627 1.0040001 2.2587209e-038
0.045229245 0.091694243 1.0041765 2.2124071e-038
0.055417262 0.094588578 1.0032501 2.2217348e-038
0.064782619 0.097288825 1.0040001 2.0832614e-038
0.07394921 0.099125087 1.0040001 2.0186164e-038
-0.065020956 0.10613429 1.0040001 2.341769e-038
-0.054999791 0.10341186 1.0033334 2.341769e-038
-0.047183137 0.10200028 1.0022858 2.341769e-038
0.067114674 0.101816 1.001 2.0185074e-038
0.075001463 0.10362869 1.0020589 1.9355323e-038
0.082786672 0.10634795 1.0030001 1.8340086e-038
-0.081399053 0.11395811 1.0055001 2.304854e-038
-0.077057466 0.1120816 1.0030001 2.341733e-038
0.087765716 0.11383937 1.0016668 1.6864609e-038
0.094036713 0.11610655 1.0048001 1.4837741e-038
0.09755484 0.12180573 1.0014286 1.2900195e-038
0.10276668 0.12554494 1.0037501 1.1886397e-038
0.10674824 0.13473439 1.0040001 9.7662558e-039
0.10911429 0.14165334 1.0050001 8.384752e-039
0.11254971 0.14604211 1.0049 8.4751582e-039
0.11458877 0.15495087 1.0043 8.0148849e-039
0.11704469 0.16438566 1.0035385 7.9216201e-039
0.12084001 0.16783334 1.0070001 7.8301419e-039
0.11839049 0.17471716 1.0025001 7.8301391e-039
0.12084001 0.17518604 1.0070002 7.7379435e-039
0.11821335 0.18494669 1.001 7.7368701e-039
0.1213181 0.18541545 1.0046 7.8294231e-039
0.12223336 0.19529526 1.0037858 7.4617167e-039
0.12353928 0.20433567 1.0046667 7.643957e-039
0.12575155 0.21496233 1.0036666 7.3680862e-039
0.12694997 0.22519864 1.0042727 7.5517586e-039
0.12550214 0.23450573 1.0040001 7.3673603e-039
0.12845552 0.24463513 1.0022858 6.9982205e-039
0.13134591 0.24584118 1.0052001 6.9985792e-039
0.12933557 0.25581113 1.001 6.5375996e-039
0.13203314 0.25450096 1.0046002 6.6294281e-039
0.13334668 0.26581943 1.0039999 6.4464942e-039
0.13602147 0.27442622 1.0022501 6.8138348e-039
0.13646393 0.28507829 1.0026364 7.090063e-039
0.14002097 0.28387815 1.0070001 7.1819027e-039
0.13675261 0.29473674 1.0033333 6.9982135e-039
0.13791239 0.30493143 1.002125 6.8149054e-039
0.14002097 0.30497715 1.0070001 6.9989393e-039
0.13532701 0.31395462 1.003 6.6298023e-039
0.13297905 0.32430387 1.0045 6.4457669e-039
0.12812801 0.33633605 1.001 4.6050899e-039
0.13126819 0.33486673 1.0046002 4.9738683e-039
0.12509552 0.34621191 1.0015715 5.61853e-039
0.13096343 0.34234059 1.0052001 6.5383437e-039
0.12301779 0.35339367 1.0065001 5.6192433e-039
0.10868 0.36798668 1.001 3.867169e-039
0.11058667 0.36798668 1.001 3.6824176e-039
-0.02322286 0.089020953 1.016 2.341769e-038
-0.015504763 0.088181905 1.0175 2.341769e-038
-0.005452814 0.087762952 1.0157275 2.341769e-038
0.0048377779 0.087052703 1.0156666 2.341769e-038
0.015470885 0.087164357 1.0153571 2.341769e-038
0.025102859 0.086891815 1.0138001 2.3325494e-038
0.034744378 0.086859435 1.0134001 2.27716e-038
0.044021375 0.088042766 1.0146667 2.203223e-038
0.054654665 0.088062868 1.0139002 2.2494293e-038
0.062850289 0.088454865 1.0184001 2.2031156e-038
-0.052671622 0.097979061 1.0166 2.341769e-038
-0.044328135 0.095353276 1.0148002 2.341769e-038
-0.034772955 0.094652958 1.0142001 2.341769e-038
-0.025680587 0.092911795 1.0130001 2.341769e-038
-0.015412191 0.090526484 1.0112 2.341769e-038
-0.0096190479 0.090419047 1.01 2.341769e-038
0.0067333332 0.090419047 1.01 2.341769e-038
0.011542857 0.090419047 1.01 2.341769e-038
0.056614965 0.090968713 1.0100001 2.2217705e-038
0.065852925 0.092437282 1.0125717 2.1662013e-038
0.074765094 0.095865026 1.0134001 2.0186168e-038
0.081160001 0.097583815 1.0145 1.9631906e-038
-0.062757827 0.10311402 1.0160002 2.341769e-038
-0.056324955 0.10126801 1.0127001 2.341769e-038
0.085736096 0.10386328 1.0140002 1.898654e-038
0.093955316 0.10837012 1.0146157 1.5667501e-038
0.10092953 0.10869334 1.0190001 1.4743751e-038
0.09605857 0.11290833 1.0111251 1.4469673e-038
0.1025831 0.11560915 1.01375 1.3822872e-038
0.10770651 0.12506366 1.01275 1.1057352e-038
0.11192429 0.12694238 1.0175 9.9513729e-039
0.10877666 0.13187811 1.0107501 9.7669788e-039
0.11463449 0.135538 1.0133334 8.9375755e-039
0.11696246 0.1438438 1.0124707 8.2911243e-039
0.12228001 0.14654191 1.0190001 8.3829444e-039
0.11857752 0.15418687 1.0106 8.1067246e-039
0.1226958 0.15578209 1.0160002 8.1982098e-039
0.12454191 0.1648653 1.0136667 7.9223404e-039
0.12514623 0.17514735 1.0144118 7.92126e-039
0.12624705 0.18467826 1.0148462 7.7372246e-039
0.12777108 0.19481404 1.0135455 7.4613636e-039
0.13133779 0.19506572 1.0190001 7.6450346e-039
0.12815571 0.20523761 1.0117501 7.7361456e-039
0.13314715 0.20576857 1.01675 7.7361652e-039
0.12851048 0.21392761 1.0100001 7.5521187e-039
0.13401188 0.21527441 1.0147145 7.6446731e-039
0.13457733 0.22523275 1.0161579 7.5514026e-039
0.12889524 0.23470476 1.0100001 7.4592042e-039
0.13431095 0.2349339 1.0160002 7.3666555e-039
0.12889524 0.24047619 1.01 6.9071038e-039
0.13437143 0.24424365 1.0150001 6.6315959e-039
0.13626954 0.25512999 1.01475 6.6298009e-039
0.1377811 0.26410538 1.0143849 6.3546517e-039
0.14155048 0.26758671 1.0180001 6.6301638e-039
0.13872001 0.27069524 1.0115 6.7237663e-039
0.14149691 0.27574167 1.014125 6.9985778e-039
0.14364 0.28582287 1.015625 7.0904287e-039
0.1430724 0.29515302 1.0150001 7.0907776e-039
0.14304402 0.30371583 1.0163335 7.0911307e-039
0.13913143 0.3178781 1.0145 6.7219965e-039
0.14217477 0.31491953 1.0190001 6.7223566e-039
0.13735759 0.32582322 1.0143636 6.3532098e-039
0.14168952 0.32025716 1.0190001 6.6301568e-039
0.13694735 0.33498347 1.0136429 6.7237902e-039
0.14085524 0.33477241 1.013 8.8468078e-039
0.1354681 0.34156954 1.016 6.7255936e-039
-0.032261427 0.088961907 1.0265 2.341769e-038
-0.025195878 0.087120168 1.024 2.341769e-038
-0.015627047 0.08497715 1.0256002 2.341769e-038
-0.005849143 0.084436953 1.0238001 2.341769e-038
0.0048747621 0.082913816 1.0242501 2.341769e-038
0.015234287 0.083388947 1.0253 2.341769e-038
0.025812913 0.08308275 1.0250002 2.3325494e-038
0.035156574 0.082999051 1.0253 2.2863796e-038
0.045295589 0.085260272 1.0258182 2.2401736e-038
0.054717146 0.086313024 1.026 2.2863797e-038
0.065430686 0.086875141 1.023667 2.2401019e-038
0.073269993 0.088896908 1.0257499 2.1292873e-038
-0.06205029 0.098732196 1.0244001 2.341769e-038
-0.055006586 0.096702516 1.0247273 2.341769e-038
-0.0487381 0.094550483 1.0235001 2.341769e-038
-0.035394832 0.091125719 1.024143 2.341769e-038
-0.029200001 0.091493338 1.0220001 2.341769e-038
0.076296061 0.092162997 1.0232859 2.0739343e-038
0.084485486 0.096447736 1.0255624 2.0369835e-038
0.091940962 0.099113017 1.0270001 1.8064958e-038
0.089546673 0.10122667 1.0220001 1.8986915e-038
0.095607899 0.10438463 1.0243572 1.6496549e-038
0.10386782 0.10816077 1.025 1.4560082e-038
0.10725696 0.11466515 1.0238001 1.3178224e-038
0.11185667 0.11771524 1.02575 1.1334305e-038
0.10901333 0.12069334 1.0220001 1.1426495e-038
0.11525727 0.12453178 1.0255625 1.0135407e-038
0.11739848 0.13143618 1.0238001 9.3056462e-039
0.1219366 0.13616273 1.0254285 8.5673384e-039
0.12422286 0.14481544 1.0243335 8.1989272e-039
0.12740505 0.15490289 1.0247273 8.2896922e-039
0.13119237 0.15860571 1.028 8.2900565e-039
0.12860572 0.16302732 1.0230001 8.1985671e-039
0.13093716 0.16513334 1.026 8.1063715e-039
0.13153307 0.17621282 1.0262858 8.1049366e-039
0.13390198 0.18516243 1.0262272 7.8290615e-039
0.13583581 0.19516154 1.0246 7.5528348e-039
0.13716708 0.20379961 1.0229002 7.6450346e-039
0.14098285 0.20657906 1.028 7.6446675e-039
0.13821334 0.21121335 1.0220001 7.6439528e-039
0.14064001 0.21583717 1.0255001 7.5524802e-039
0.14162114 0.22608154 1.0240999 6.9985876e-039
0.13821334 0.23554668 1.0220001 6.998589e-039
0.14252761 0.23493461 1.0250001 6.9071038e-039
0.13821334 0.24430668 1.0220001 6.6308911e-039
0.1426045 0.24515812 1.0255625 6.8152585e-039
0.14337958 0.25603387 1.0256667 6.7227168e-039
0.14600848 0.26475865 1.02545 6.8156299e-039
0.14638643 0.27466238 1.0237144 6.9989435e-039
0.15077333 0.27413335 1.028 7.0914993e-039
0.14686605 0.2839835 1.0235002 6.9978729e-039
0.15077333 0.28098667 1.028 6.9067437e-039
0.1483086 0.2956391 1.0245001 7.2751787e-039
0.15127937 0.29864445 1.027 7.1833404e-039
0.14744255 0.30560225 1.0230002 7.0007358e-039
0.15183316 0.3042537 1.0258999 7.0010959e-039
0.14636362 0.31460938 1.0259 6.8152711e-039
0.14299113 0.32473493 1.026 6.6290862e-039
0.14280382 0.33385777 1.027 7.5524676e-039
-0.0059314296 0.079085723 1.0380001 2.341769e-038
0.0049428581 0.079085723 1.0380001 2.341769e-038
0.015768381 0.078841902 1.0348001 2.341769e-038
0.026504492 0.078390211 1.0362858 2.341769e-038
0.035089947 0.078071535 1.0362222 2.3233299e-038
0.045474291 0.079085723 1.0380001 2.3048547e-038
-0.03163429 0.08699429 1.0380001 2.341769e-038
-0.025352659 0.084229119 1.0352858 2.341769e-038
-0.015329312 0.081903495 1.0347779 2.341769e-038
-0.0063415873 0.081553869 1.0331112 2.341769e-038
0.0049123811 0.080633342 1.0325 2.341769e-038
0.016397461 0.080999687 1.033 2.341769e-038
0.024896827 0.08092159 1.0320001 2.3325494e-038
0.03537143 0.080563053 1.0316001 2.3140744e-038
0.045252383 0.08164648 1.0329002 2.2956352e-038
0.054868031 0.082862183 1.0340716 2.2956712e-038
0.064364634 0.084405452 1.0374287 2.2402818e-038
0.075174205 0.085910492 1.0336365 2.147798e-038
0.083777353 0.087721489 1.0362222 2.1201399e-038
-0.053112857 0.093437627 1.03275 2.341769e-038
-0.04522362 0.092424385 1.0324 2.341769e-038
0.085482433 0.091915846 1.0327274 2.0647509e-038
0.093947209 0.095255032 1.0347223 1.8710318e-038
0.10182287 0.098857149 1.0380001 1.7140836e-038
-0.071177147 0.10577716 1.0380001 2.341769e-038
-0.067971438 0.10441493 1.0343335 2.3417328e-038
0.097631112 0.10090604 1.0320001 1.769473e-038
0.10440718 0.10440191 1.0353531 1.5942294e-038
0.11269715 0.10874286 1.0380001 1.3363322e-038
0.10997333 0.11291905 1.031 1.2992366e-038
0.11546404 0.1143316 1.0340954 1.2255896e-038
0.12160274 0.11652192 1.0368572 1.151941e-038
0.11979239 0.12666571 1.031 1.0136121e-038
0.12273525 0.12470326 1.0359335 1.0043556e-038
0.1262888 0.13567312 1.0334618 8.6602669e-039
0.13049145 0.13741145 1.0380001 8.5673566e-039
0.12854628 0.14466153 1.0319002 8.2911257e-039
0.13315734 0.14520498 1.0372002 8.1074519e-039
0.12961142 0.15121333 1.031 8.3822465e-039
0.13355707 0.15506375 1.0352728 8.1974993e-039
0.13517526 0.16477144 1.0360001 8.106719e-039
0.13642526 0.17426948 1.0350002 8.013457e-039
0.14037715 0.17992002 1.0380001 7.6453975e-039
0.13937366 0.18429969 1.033 7.7372344e-039
0.1426841 0.1863886 1.0362858 7.7368813e-039
0.13943049 0.19245335 1.031 7.5535578e-039
0.14396492 0.195709 1.0363573 7.6453961e-039
0.14349227 0.20438507 1.0360001 7.6453891e-039
0.14460424 0.21624108 1.0352224 7.3680848e-039
0.14633849 0.22472154 1.0340002 7.0911223e-039
0.14813778 0.23518223 1.0346667 6.9074556e-039
0.15026288 0.23330288 1.0380001 6.907094e-039
0.14781198 0.24419375 1.0327144 6.9070954e-039
0.15026288 0.24615431 1.0380001 6.9063822e-039
0.14790885 0.25427839 1.0314287 7.0904259e-039
0.15133183 0.25603661 1.0372001 6.9989407e-039
0.15147734 0.26557374 1.0328001 6.9081758e-039
0.15467811 0.27578285 1.0366666 6.9989477e-039
0.14924952 0.28671622 1.031 7.0907552e-039
0.15504572 0.28494418 1.0364668 6.7227168e-039
0.15515231 0.29495725 1.0358183 6.8149096e-039
0.15672952 0.30261526 1.0350001 6.8170466e-039
0.14924952 0.31715524 1.031 6.6322952e-039
0.15235315 0.31651774 1.0334001 7.4613482e-039
0.14716403 0.32532719 1.0316668 7.1840621e-039
0.15224002 0.32538125 1.0380001 8.0173862e-039
0.14758742 0.33413371 1.0331 8.1996503e-039
0.15110478 0.33134383 1.0370001 8.2943431e-039
-0.024928574 0.079771429 1.0470001 2.341769e-038
-0.016222041 0.079103678 1.0457144 2.341769e-038
-0.005222857 0.077580005 1.0443751 2.341769e-038
0.004964286 0.076467142 1.0427499 2.341769e-038
0.015899431 0.076513715 1.0434 2.341769e-038
0.024650859 0.075740002 1.0437 2.341769e-038
0.036620572 0.07503143 1.0449001 2.3325494e-038
0.045482449 0.075751036 1.0446428 2.3048907e-038
0.055237144 0.078123815 1.045 2.3048547e-038
0.06493143 0.07916899 1.0465715 2.2679406e-038
-0.059657145 0.089485712 1.044 1.6127373e-038
-0.035149049 0.086209059 1.0445001 2.341769e-038
-0.026667755 0.082564086 1.0427144 2.341769e-038
-0.019828571 0.081297144 1.041 2.341769e-038
0.059485711 0.081297144 1.041 2.3233299e-038
0.066298574 0.082187146 1.0428751 2.2679047e-038
0.074875712 0.082832143 1.04475 2.1847485e-038
0.087085716 0.086088583 1.043 2.0002137e-038
0.093780719 0.088304289 1.04475 1.9908142e-038
-0.055243813 0.091960005 1.0420001 2.3232216e-038
-0.045766857 0.091526859 1.0446 2.341769e-038
-0.039657142 0.091211431 1.041 2.341769e-038
0.09801048 0.092709526 1.043 1.8618484e-038
0.10493571 0.09622822 1.0443749 1.7695806e-038
0.11168001 0.099714287 1.0470001 1.6682387e-038
0.10871857 0.10275999 1.0425 1.6035567e-038
0.11457275 0.10615604 1.044 1.4283856e-038
0.12165143 0.10968572 1.0470001 1.3177141e-038
0.12444643 0.11500572 1.04325 1.1703444e-038
0.12815428 0.12517142 1.0431 9.3974774e-039
0.13162288 0.12763429 1.0470002 8.9375727e-039
0.12847239 0.13178287 1.0430001 8.8450197e-039
0.13356157 0.13590755 1.0437275 8.4758715e-039
0.13698696 0.14492653 1.0422858 7.9230578e-039
0.1381854 0.15452 1.043 8.1974895e-039
0.13896 0.16476344 1.0422001 7.922346e-039
0.14159429 0.16752002 1.0470002 7.9227033e-039
0.14206116 0.17483942 1.0431 7.9208956e-039
0.1454823 0.18562858 1.0434 7.736517e-039
0.14833905 0.19436191 1.043 7.8290643e-039
0.14807111 0.20500445 1.0426668 7.369884e-039
0.15156573 0.20541143 1.0470002 7.4613734e-039
0.14839858 0.21401858 1.044 7.3677288e-039
0.15156573 0.21737716 1.0470002 7.6442919e-039
0.14871427 0.22108857 1.041 7.2762297e-039
0.15201777 0.22426414 1.044 7.275522e-039
0.153367 0.2356908 1.0456667 7.0914825e-039
0.15383366 0.24466729 1.0443333 7.3680722e-039
0.15404095 0.25640094 1.0435001 7.183332e-039
0.15574475 0.26648319 1.0423334 7.1833334e-039
0.15842476 0.27608097 1.044 6.9989477e-039
0.15862857 0.28850573 1.041 6.4482823e-039
0.15510857 0.31717715 1.044 7.2766206e-039
0.15411714 0.32511714 1.044 7.7400945e-039
0.041273333 0.068453334 1.057 2.341769e-038
-0.032180004 0.077104449 1.056 2.2033301e-038
-0.024609052 0.076824769 1.0545001 2.341769e-038
-0.013594873 0.075993419 1.0542309 2.341769e-038
-0.0050126985 0.074854612 1.0526668 2.341769e-038
0.0040076189 0.073185906 1.0527 2.341769e-038
0.014398788 0.072894372 1.0524546 2.341769e-038
0.023638666 0.072320767 1.0518001 2.341769e-038
0.033827383 0.072411194 1.0523751 2.341769e-038
0.04321361 0.071543954 1.0517144 2.3141103e-038
0.054340001 0.074371666 1.0517501 2.3048547e-038
0.064690322 0.075718589 1.0530834 2.2679047e-038
0.074196197 0.077627219 1.0527143 2.2493933e-038
0.081204452 0.077848896 1.057 2.2031156e-038
-0.052236825 0.087399378 1.0548334 1.9816637e-038
-0.043963026 0.08568 1.0518825 2.3047823e-038
-0.034529526 0.081326202 1.051 2.3417328e-038
-0.026702223 0.080768257 1.0513334 2.341769e-038
0.075600006 0.080400012 1.0500001 2.2031876e-038
0.084032379 0.082624383 1.0529001 2.1109202e-038
0.094760008 0.085600004 1.052143 2.0462747e-038
0.1035312 0.087444529 1.055375 1.9356761e-038
-0.05304762 0.090085715 1.051 2.3324757e-038
-0.044000007 0.090000004 1.0500001 2.341769e-038
0.1052817 0.091254815 1.0516669 1.880252e-038
0.112905 0.096593566 1.05375 1.649727e-038
0.11617362 0.10272219 1.0515716 1.5021402e-038
0.12261001 0.10753334 1.05525 1.2993462e-038
0.12700532 0.11374287 1.0550001 1.2163709e-038
0.13068095 0.11761143 1.0555 1.0964788e-038
0.13398582 0.12432104 1.0527273 9.3059937e-039
0.13674459 0.13293695 1.0511001 8.3840276e-039
0.14066666 0.13664572 1.0550001 8.1989315e-039
0.14187351 0.14487636 1.0527501 7.8301265e-039
0.14389496 0.1546765 1.0514617 8.0134514e-039
0.1447023 0.16398111 1.0528463 7.8297874e-039
0.14710592 0.17459697 1.0536002 8.0130913e-039
0.1474449 0.18294206 1.052143 7.737226e-039
0.15100001 0.18724 1.057 8.1052785e-039
0.15264191 0.19497588 1.052889 7.6450262e-039
0.15466079 0.20420764 1.0520002 7.552839e-039
0.15517716 0.21451646 1.0525335 7.7372106e-039
0.15704191 0.22408141 1.0520909 7.7357841e-039
0.15698059 0.23346515 1.0512002 7.6443059e-039
0.15784223 0.24494223 1.0511668 7.8283357e-039
0.15769631 0.25449631 1.0538889 7.2758849e-039
0.15870224 0.26316002 1.0546668 7.2762451e-039
0.16263556 0.2674053 1.0555557 7.1836907e-039
0.16343705 0.27336106 1.0545456 6.999661e-039
0.004064762 0.069100961 1.0670002 2.341769e-038
0.016259048 0.069100961 1.0670002 2.341769e-038
0.028453335 0.069100954 1.067 2.341769e-038
0.034499813 0.06901028 1.0656 2.3325494e-038
0.052841902 0.069100961 1.0670002 2.2771962e-038
-0.022253335 0.074845716 1.0620002 2.341769e-038
-0.013210477 0.073165715 1.067 2.341769e-038
-0.0044445717 0.072375245 1.0614001 2.341769e-038
0.0040380955 0.070760004 1.0614001 2.341769e-038
0.01312381 0.070666671 1.0600001 2.341769e-038
0.02629905 0.070800006 1.0620002 2.341769e-038
0.033314288 0.070666671 1.0600001 2.341769e-038
0.046438098 0.070666671 1.0600002 2.3233299e-038
0.055096932 0.071734391 1.0625556 2.2587569e-038
0.064007387 0.072103575 1.0626251 2.2587209e-038
0.074753121 0.074441612 1.0606924 2.2401379e-038
0.084991522 0.076525547 1.0623637 2.1661651e-038
0.092895716 0.078680478 1.066 2.1937877e-038
0.086314291 0.081266671 1.0600001 2.0647144e-038
0.095283471 0.082588583 1.0622727 2.129287e-038
0.10493123 0.084932067 1.0616667 1.9909932e-038
0.11269239 0.088324763 1.066 1.8525913e-038
0.1158066 0.094166897 1.062308 1.6773488e-038
0.12246795 0.098784767 1.0656667 1.4651559e-038
0.11912382 0.10196191 1.0600001 1.4651887e-038
0.12532154 0.10506096 1.0634668 1.327006e-038
0.13185716 0.10802048 1.0650001 1.234738e-038
0.12854604 0.11172064 1.0600002 1.3178584e-038
0.13412368 0.11558097 1.063154 1.1241387e-038
0.13777678 0.12444191 1.0606 9.3981935e-039
0.14111716 0.12690191 1.066 8.9375671e-039
0.1439569 0.13511568 1.063091 7.8308594e-039
0.14727238 0.14456508 1.064 7.8301377e-039
0.14868648 0.15555468 1.0606 8.0134486e-039
0.15039618 0.15446095 1.067 8.1060001e-039
0.1494941 0.16565335 1.0606 8.0134542e-039
0.15291557 0.16779938 1.0656667 7.9216103e-039
0.14940953 0.17161906 1.0600001 8.1967664e-039
0.1537599 0.17496547 1.0640001 7.8290545e-039
0.15456112 0.18428731 1.0641668 8.0130983e-039
0.15482238 0.19226049 1.0625 7.8279979e-039
0.1593051 0.20554003 1.0631669 7.6453877e-039
0.15950477 0.21401906 1.0600002 8.0137947e-039
0.16238731 0.2171905 1.0656667 7.6443129e-039
0.16297965 0.22472344 1.0629001 7.9209026e-039
0.16406162 0.23494606 1.0633335 7.8283483e-039
0.16359225 0.24563542 1.0635834 7.7361498e-039
0.16311848 0.25451046 1.062 7.4602818e-039
0.16433801 0.26415029 1.0622224 6.9081786e-039
-0.012015511 0.068283275 1.0770001 2.2586123e-038
-0.0055388571 0.068107434 1.077 2.3232216e-038
0.0051020957 0.067012005 1.0726001 2.341769e-038
0.013125873 0.066798255 1.0735834 2.341769e-038
0.024801362 0.068566263 1.0722859 2.341769e-038
0.034773715 0.067496009 1.0738 2.341769e-038
0.046148572 0.067973971 1.0742222 2.3141103e-038
0.055260822 0.066516876 1.0745715 2.2495016e-038
0.065373175 0.068102069 1.0753332 2.240138e-038
0.074810475 0.069683813 1.0760001 2.2216989e-038
-0.022481907 0.073577151 1.0730002 2.3231494e-038
-0.014029116 0.072502866 1.0744287 2.341769e-038
-0.0061314292 0.071533337 1.0730002 2.341769e-038
0.068276197 0.071333334 1.0700001 2.2493936e-038
0.075580955 0.071493343 1.0724 2.2309184e-038
0.086419247 0.073138289 1.0726 2.2216627e-038
0.095056862 0.075853765 1.0741539 2.1754929e-038
0.10238096 0.078148894 1.075 2.1108843e-038
0.099866673 0.081523813 1.0700001 2.1661657e-038
0.10597461 0.081776515 1.0733335 1.9725553e-038
0.11403324 0.085940436 1.0742728 1.8986535e-038
0.11820953 0.091714285 1.0700001 1.7327396e-038
0.12448727 0.094774023 1.0734705 1.5575308e-038
0.13129143 0.098468572 1.077 1.4374965e-038
0.12852001 0.10199811 1.0710001 1.3915795e-038
0.13504653 0.10434898 1.0742105 1.2808717e-038
0.14223239 0.10804191 1.077 1.1426148e-038
0.1380637 0.11330396 1.0704287 1.1333587e-038
0.14353369 0.11487333 1.0745624 1.0135038e-038
0.14498767 0.12430588 1.0729412 8.291483e-039
0.14836356 0.13405786 1.0725001 8.0145192e-039
0.15180573 0.13744572 1.077 8.1067162e-039
0.15231027 0.14571472 1.0741112 7.9244661e-039
0.15328869 0.1548745 1.0730001 8.1982e-039
0.1552925 0.16457611 1.0727272 7.9219732e-039
0.15874211 0.17547163 1.0712001 7.7372246e-039
0.16137905 0.17573905 1.077 7.7372232e-039
0.15897144 0.18444762 1.0700001 7.7361554e-039
0.16158135 0.18407695 1.0738001 7.736154e-039
0.15887129 0.19443159 1.0712858 7.6446759e-039
0.16230446 0.19544636 1.0763334 7.3680862e-039
0.16481693 0.20514074 1.0744705 7.3684351e-039
0.16518667 0.2145924 1.0744287 7.6453681e-039
0.16722667 0.22409809 1.0728335 7.6443115e-039
0.16879874 0.23550415 1.072 7.5524732e-039
0.17026858 0.23386286 1.077 7.3695211e-039
0.16837905 0.24525303 1.0715001 7.64395e-039
0.17026857 0.24514572 1.077 7.4595573e-039
0.16763335 0.25527143 1.0700001 6.9078101e-039
0.16712382 0.26189524 1.0700001 7.0003743e-039
0.02353829 0.05616153 1.0840001 2.2402095e-038
-0.020647621 0.067104772 1.0840001 1.4188747e-038
-0.016480003 0.067463815 1.0815001 1.6956418e-038
-0.0030971433 0.066072389 1.0840001 2.341769e-038
0 0.066072389 1.0840001 2.341769e-038
0.018608572 0.065128572 1.0855 2.341769e-038
0.024795512 0.06507919 1.0847143 2.341769e-038
0.034736075 0.063656315 1.0846875 2.341769e-038
0.044889525 0.065006666 1.0835 2.3233657e-038
0.057748571 0.06341619 1.08275 2.27716e-038
0.064284638 0.06428273 1.0837144 2.2308824e-038
0.074205719 0.067609914 1.0822001 2.2308824e-038
0.082171433 0.068730004 1.08525 2.2861998e-038
-0.022249145 0.07128077 1.0816001 1.9910254e-038
-0.018514287 0.072000004 1.08 2.341769e-038
0.085867621 0.070347622 1.0862499 2.2863437e-038
0.095694102 0.072595432 1.0828 2.24003e-038
0.10677715 0.077392392 1.0864 2.0555311e-038
0.11284095 0.078678094 1.087 2.0278004e-038
0.10902857 0.080228575 1.08 1.8803242e-038
0.11681192 0.083090477 1.0838335 1.9447156e-038
0.12463333 0.086086802 1.0853572 1.7787276e-038
0.13044 0.089030474 1.087 1.7509945e-038
0.12766096 0.092140958 1.0810001 1.5574941e-038
0.13450329 0.095020004 1.0845 1.5205798e-038
0.14079238 0.099382862 1.087 1.4005444e-038
0.13885716 0.10182858 1.08 1.2717233e-038
0.14470039 0.10568382 1.0837001 1.1610534e-038
0.14811429 0.11417143 1.08 9.9513561e-039
0.1513508 0.11618222 1.086 9.1208779e-039
0.15238741 0.12494902 1.0822308 8.3822395e-039
0.15497123 0.13476743 1.0847777 8.0155996e-039
0.15713029 0.14453067 1.084 7.7379463e-039
0.16149715 0.14803904 1.087 7.6446703e-039
0.15797693 0.15385096 1.082375 7.9212656e-039
0.16208871 0.15617307 1.087 7.7364974e-039
0.1584 0.1625143 1.0800002 7.7365072e-039
0.16290051 0.16600049 1.086 7.4602748e-039
0.16396858 0.17377858 1.0845 7.8287084e-039
0.16629541 0.18580902 1.0839092 7.6446731e-039
0.16734233 0.19505332 1.0836428 7.6453765e-039
0.16841653 0.20140955 1.0826668 7.185476e-039
0.17184953 0.20704763 1.0870001 7.551739e-039
0.16868572 0.21497144 1.08 7.6446703e-039
0.17184952 0.21532953 1.087 7.6446703e-039
0.16868572 0.22011429 1.08 7.8283441e-039
0.17230557 0.22638886 1.0861429 7.5517488e-039
0.17477159 0.23556222 1.0833846 7.368784e-039
0.17511621 0.24516727 1.0816 6.3535699e-039
0.1736031 0.25522882 1.085 6.1688157e-039
0.17233144 0.2641643 1.0835 5.524168e-039
0.17291081 0.27280194 1.085 5.8929575e-039
0.018805714 0.058506664 1.097 2.3508802e-038
0.025631746 0.05820445 1.0913334 2.341769e-038
0.035351623 0.058218669 1.0916002 2.341769e-038
0.015615 0.06298238 1.0931251 2.341769e-038
0.024145238 0.061015718 1.0905001 2.341769e-038
0.036852382 0.060728572 1.09 2.341769e-038
0.044303946 0.062141232 1.0927143 2.341769e-038
0.050011434 0.06251429 1.0940001 2.341769e-038
0.063323811 0.062285714 1.09 2.2494655e-038
0.075902171 0.064919472 1.093091 2.2493574e-038
0.08561369 0.066290736 1.0938182 2.2586492e-038
0.094396196 0.068498671 1.0964001 2.221699e-038
0.10029714 0.068954289 1.097 2.2677607e-038
0.095504776 0.070590481 1.09 2.2124074e-038
0.10448028 0.072775513 1.0939287 2.1847126e-038
0.11429779 0.075684704 1.0936668 2.0554954e-038
0.12256619 0.07875286 1.09525 1.926385e-038
0.12582533 0.081903681 1.0905716 1.8341178e-038
0.13483781 0.087272525 1.0929232 1.7048987e-038
0.1384127 0.092044458 1.09 1.5298711e-038
0.14295405 0.096339762 1.0936251 1.428312e-038
0.14680845 0.10252354 1.0921429 1.1793848e-038
0.15153939 0.10600572 1.0948334 1.0687858e-038
0.15519914 0.11412434 1.0930001 8.7528241e-039
0.15742476 0.12385715 1.0915716 8.2907529e-039
0.16119573 0.12780762 1.0955 8.1067176e-039
0.15862095 0.13495238 1.09 7.9237641e-039
0.16255279 0.13563333 1.0955 7.922339e-039
0.15986666 0.14221905 1.09 7.7379463e-039
0.1642642 0.14531392 1.0930001 7.8294189e-039
0.16681947 0.15447375 1.0927857 7.8294076e-039
0.16789334 0.16450453 1.09325 7.4599189e-039
0.16841829 0.17465754 1.0916001 7.6439612e-039
0.17134096 0.17969905 1.097 7.7361484e-039
0.16817144 0.18166667 1.09 7.7365072e-039
0.17185694 0.18480404 1.092889 7.7372274e-039
0.17408261 0.19489144 1.0927273 7.7372218e-039
0.17522666 0.20418638 1.0921539 7.5524788e-039
0.17700858 0.2146018 1.0923573 7.5521145e-039
0.18238953 0.21677905 1.0943334 7.091142e-039
0.17662451 0.22393198 1.0900002 7.4602832e-039
0.18164667 0.22224478 1.0930001 6.8156313e-039
0.17751428 0.23253335 1.09 7.5520851e-039
0.1770694 0.25774425 1.0900002 4.7851624e-039
0.17768691 0.26652765 1.09425 4.3256304e-039
0.18129145 0.26464385 1.0940001 3.3129288e-039
0.17865428 0.2716381 1.097 4.2323558e-039
0.016777143 0.058720004 1.1010001 2.3230415e-038
0.045174286 0.05882667 1.103 2.341769e-038
0.050651431 0.059093338 1.108 2.341769e-038
0.074921906 0.059093338 1.108 2.258685e-038
0.015728572 0.060817149 1.1010001 2.341769e-038
0.047185719 0.060817149 1.1010001 2.341769e-038
0.052691907 0.062174767 1.1065 2.3048907e-038
0.069205724 0.06291429 1.1010001 2.2401017e-038
0.07488215 0.061741676 1.1035 2.2493933e-038
0.085146427 0.06201762 1.10375 2.2679046e-038
0.094479419 0.064708434 1.1041538 2.2401021e-038
0.10517275 0.067306079 1.1043077 2.2032236e-038
0.1148681 0.069551431 1.1065 2.1108845e-038
0.11702368 0.072312653 1.1027143 2.0555314e-038
0.12526225 0.075784773 1.1052501 1.9448605e-038
0.13049524 0.079980955 1.105 1.8618838e-038
0.13550206 0.083221495 1.1041429 1.7603247e-038
0.14245714 0.087584764 1.108 1.6863154e-038
0.14682059 0.094230868 1.1042999 1.4283126e-038
0.15227619 0.097476661 1.1065 1.271653e-038
0.15547323 0.10543958 1.1046666 1.0596384e-038
0.16039619 0.10763429 1.108 9.9517204e-039
0.15952763 0.11439525 1.102 8.5691489e-039
0.16283648 0.11677987 1.1061429 8.1074477e-039
0.16459621 0.12481277 1.1049999 7.9223418e-039
0.16743866 0.13521524 1.1067142 7.8294287e-039
0.16871476 0.14453143 1.10375 7.9212487e-039
0.17094857 0.14773335 1.108 7.6478989e-039
0.17290287 0.15814096 1.1070001 7.276601e-039
0.17270796 0.1664035 1.1035001 7.7357799e-039
0.1729546 0.17504984 1.1028333 7.6446689e-039
0.17682749 0.18583268 1.1032858 7.6446647e-039
0.17874287 0.19451143 1.1040001 7.7368645e-039
0.18150096 0.19627428 1.108 7.8287e-039
0.18150096 0.20049524 1.108 7.5535452e-039
0.18266985 0.21276447 1.1023334 7.367726e-039
0.056261472 0.057806585 1.1165454 2.3325494e-038
0.064825565 0.057382222 1.1158334 2.295671e-038
0.071232706 0.057408892 1.1163335 2.2679406e-038
0.087182865 0.05953778 1.1163335 2.2679046e-038
0.093782865 0.059680007 1.1190002 2.2494655e-038
0.057267144 0.062037148 1.1135 2.2956712e-038
0.065310478 0.061915811 1.1132001 2.2771599e-038
0.070085719 0.061590474 1.115 2.2495368e-038
0.09663333 0.062121429 1.115 2.2401021e-038
0.10444001 0.06351658 1.1190001 2.2308827e-038
0.11560525 0.066030964 1.1153336 2.1477622e-038
0.12327865 0.068314835 1.1158572 2.1015563e-038
0.12758504 0.071518645 1.1137145 1.972554e-038
0.13430244 0.076707728 1.1152223 1.8433725e-038
0.13817295 0.081378296 1.1126001 1.741958e-038
0.14562301 0.085031167 1.1160716 1.6772402e-038
0.15133144 0.088454291 1.1190001 1.4651188e-038
0.14826667 0.091078103 1.1120001 1.5757877e-038
0.15557854 0.09512724 1.1148001 1.3638108e-038
0.16198859 0.098045722 1.1190001 1.3360094e-038
0.15809564 0.10341791 1.1126001 1.1242108e-038
0.16346267 0.10535005 1.1161113 1.0596371e-038
0.16643374 0.11378381 1.1144999 8.5680713e-039
0.17051429 0.11509716 1.1190001 8.4751498e-039
0.16938971 0.12523963 1.1143999 7.9216187e-039
0.17051429 0.12149144 1.1190001 8.0134794e-039
0.16944763 0.13238096 1.1120001 7.8301419e-039
0.17344294 0.13534459 1.1166365 7.9216131e-039
0.17442445 0.14449461 1.1155834 8.0130772e-039
0.17460714 0.15444288 1.1145 7.5531781e-039
0.17706573 0.16537622 1.1155001 7.7361442e-039
0.17782572 0.17516144 1.1163751 7.8294203e-039
0.18223715 0.17371145 1.1190001 7.6457296e-039
0.17840001 0.18158571 1.115 7.7372176e-039
0.18264762 0.19326667 1.115 8.1049211e-039
0.18264762 0.20388572 1.115 7.6457409e-039
0.054545715 0.055615239 1.123 2.341769e-038
0.07778921 0.05851873 1.1240001 2.2863437e-038
0.081392378 0.058900952 1.1245 2.2679046e-038
0.09839619 0.059893332 1.123 2.2492497e-038
0.083645716 0.060053337 1.126 2.2679046e-038
0.10369562 0.06127391 1.1248001 2.240102e-038
0.1123 0.064171433 1.123 2.2122269e-038
0.12546858 0.066487625 1.126 2.0831884e-038
0.13562995 0.073783129 1.1251429 1.8710311e-038
0.14276573 0.078027055 1.1253999 1.7418148e-038
0.14866382 0.082353331 1.123 1.7695074e-038
0.15333314 0.085235767 1.125 1.548239e-038
0.15742859 0.091029525 1.1245 1.3915416e-038
0.16278762 0.096388571 1.1245 1.3360449e-038
0.16703755 0.10432137 1.1242858 1.0780758e-038
0.17135239 0.10816476 1.1245 8.6606313e-039
0.17354058 0.11569029 1.1248001 8.4755085e-039
0.17420922 0.12601493 1.1245 8.1056484e-039
0.17739771 0.13326134 1.1248001 7.8294104e-039
0.18123239 0.13940953 1.126 7.7372176e-039
0.17896698 0.14331619 1.123 8.0130758e-039
0.18087494 0.14512889 1.1260002 7.8279783e-039
0.17754094 0.15508096 1.123 7.4609839e-039
0.18016003 0.15442286 1.126 7.5524858e-039
0.18158987 0.16586161 1.126 7.551404e-039
0.18341798 0.1763864 1.1234287 7.6457465e-039
0.18407688 0.18446684 1.1249093 7.7368617e-039
0.1856308 0.19455302 1.1245002 7.8290475e-039
0.18596649 0.20525222 1.1248001 7.3691554e-039
0.18516445 0.2109016 1.1260002 7.3702316e-039
0.077826671 0.056747623 1.135 2.2678686e-038
0.084327914 0.055383738 1.1352309 2.2493576e-038
0.094444871 0.05729058 1.1326667 2.2401021e-038
0.10467428 0.058268573 1.133 2.2308103e-038
0.11163238 0.058525715 1.138 2.2121558e-038
0.10761905 0.060984127 1.13 2.20308e-038
0.11496339 0.061438311 1.1340001 2.2122992e-038
0.12471809 0.063328385 1.1348002 2.1108479e-038
0.13355714 0.067586668 1.1355001 1.9815945e-038
0.13846985 0.072463498 1.13 1.8802876e-038
0.14521143 0.075718097 1.1322223 1.7786567e-038
0.15444002 0.079920009 1.1340001 1.677205e-038
0.1571281 0.084086657 1.1320001 1.5389837e-038
0.16322476 0.087556198 1.135 1.3732121e-038
0.15927619 0.090399995 1.13 1.3548444e-038
0.16527778 0.094596177 1.1330001 1.2993108e-038
0.17176382 0.098871112 1.1366668 1.1701293e-038
0.16788571 0.1011619 1.13 1.1517251e-038
0.1751477 0.10571735 1.1342669 9.3974718e-039
0.18208 0.10838095 1.138 8.8442939e-039
0.17783153 0.1146417 1.1308889 8.2925396e-039
0.18222795 0.11546795 1.1366668 8.1985727e-039
0.17784047 0.12403096 1.13 8.1052897e-039
0.18268783 0.1249947 1.1357778 8.1053065e-039
0.18249947 0.13429078 1.1331112 7.7361554e-039
0.18511666 0.14565475 1.135 7.8286846e-039
0.18474044 0.15551758 1.1325455 7.4599217e-039
0.18602079 0.16421126 1.1343637 7.4584853e-039
0.18769905 0.17331176 1.1326667 7.2769541e-039
0.18725714 0.18833333 1.13 7.5528264e-039
0.19058286 0.1851657 1.1370001 7.7365072e-039
0.18869206 0.19514923 1.13 7.7368659e-039
0.19008002 0.19224 1.1340001 7.919825e-039
0.18940954 0.20232382 1.13 7.1851298e-039
0.19008002 0.20952001 1.1340001 7.2787044e-039
0.18825144 0.21530095 1.136 7.0918482e-039
0.19041523 0.21313715 1.136 7.186555e-039
0.06954667 0.054333337 1.141 2.2864513e-038
0.075046673 0.054380957 1.1420001 2.2495374e-038
0.08707691 0.051588811 1.1465 2.2308101e-038
0.094404086 0.05358585 1.145 2.2308824e-038
0.10490667 0.055729337 1.1474003 2.1938238e-038
0.11514971 0.056700196 1.1450002 2.2307028e-038
0.12412681 0.058006532 1.1461428 2.2030794e-038
0.12736477 0.060960002 1.1430001 2.1292872e-038
0.13497713 0.063817494 1.1446364 2.0185088e-038
0.14273906 0.067360319 1.1470001 1.9261701e-038
0.1468011 0.07152462 1.1478572 1.9538641e-038
0.15380877 0.076464385 1.1470002 1.7233031e-038
0.15920953 0.080695249 1.1450001 1.6862815e-038
0.16539891 0.083878264 1.1463335 1.4283491e-038
0.17271809 0.087449908 1.1478002 1.3639185e-038
0.16843334 0.092366666 1.141 1.2810507e-038
0.17545025 0.095088221 1.1460001 1.1978956e-038
0.18165143 0.098485716 1.149 1.1702011e-038
0.17769717 0.10153906 1.1423335 1.0503095e-038
0.18369265 0.10425645 1.1468184 9.7662544e-039
0.18679906 0.11469714 1.1470001 8.1067344e-039
0.18782401 0.12448344 1.1466001 8.0134584e-039
0.19040573 0.12693715 1.149 8.0131081e-039
0.18813406 0.13585691 1.1435001 8.0116731e-039
0.19150001 0.13459715 1.149 7.9201908e-039
0.18974286 0.14612381 1.1450002 7.7368449e-039
0.1921566 0.14400801 1.149 7.6453765e-039
0.18924573 0.15335143 1.1420001 7.8276126e-039
0.19283648 0.156012 1.1467144 7.4599119e-039
0.18908001 0.16952001 1.141 7.4595615e-039
0.19318572 0.16480763 1.146 7.4588413e-039
0.18908001 0.17604001 1.141 7.5538801e-039
0.19274071 0.1737124 1.1461428 7.3684407e-039
0.19125333 0.18038668 1.141 7.5531949e-039
0.19355954 0.21482381 1.1450001 7.1851102e-039
0.18974286 0.22027621 1.1450001 7.2758793e-039
0.1925943 0.22104572 1.149 7.0911448e-039
0.095699996 0.0484 1.155 2.2586133e-038
0.077133343 0.05289143 1.1570001 2.2402459e-038
0.081540957 0.050687622 1.1570001 2.2125153e-038
0.096193135 0.050951619 1.153 2.221627e-038
0.10508994 0.051810369 1.1547778 2.2308103e-038
0.11435886 0.052780192 1.1546 2.240066e-038
0.12400064 0.055763811 1.1556667 2.2492132e-038
0.13333049 0.058951907 1.1570001 2.14769e-038
0.13884 0.061706673 1.1570001 2.0737183e-038
0.14566858 0.064428404 1.1555455 1.9446084e-038
0.15206286 0.067216195 1.1570001 1.8525213e-038
0.15585786 0.073116668 1.1545 1.7785848e-038
0.16342737 0.076410398 1.1551818 1.6864609e-038
0.16910666 0.081259042 1.153 1.5021754e-038
0.17541389 0.084247082 1.1552857 1.4467873e-038
0.1807124 0.088152386 1.1570001 1.3452999e-038
0.18337263 0.094384067 1.1548182 1.1610896e-038
0.18872476 0.10480317 1.1543334 9.3971089e-039
0.19123426 0.10660477 1.1539999 8.9368426e-039
0.19156572 0.11559714 1.156 8.1060156e-039
0.19387738 0.12567548 1.155 7.9216243e-039
0.19646524 0.13409257 1.1556666 7.7372246e-039
0.19687948 0.14540572 1.1566364 7.4609853e-039
0.19701491 0.15408762 1.1556667 7.6446619e-039
0.19834286 0.16748953 1.1570001 7.5521159e-039
0.19749522 0.17583588 1.1563334 7.3691484e-039
0.19676872 0.18417554 1.1570002 7.6446689e-039
0.19613905 0.19503716 1.1570001 7.8279881e-039
0.19613905 0.20054667 1.1570001 7.9205551e-039
0.19738221 0.21792319 1.1556667 7.4599105e-039
0.19732571 0.22287165 1.1562001 7.0918468e-039
0.077222869 0.048375241 1.1650001 2.3233299e-038
0.082937151 0.047020636 1.1663334 2.3048547e-038
0.090668574 0.048651427 1.161 2.2402819e-038
0.1047747 0.047795102 1.1632857 2.258649e-038
0.11428096 0.04881905 1.1650001 2.2585771e-038
0.074453071 0.051647078 1.1644286 2.3140743e-038
0.11676343 0.051305145 1.1610001 2.2123711e-038
0.12526762 0.053208575 1.164 2.2492134e-038
0.13526896 0.056543816 1.1642001 2.1476545e-038
