# .PCD v0.7 - Point Cloud Data file format
VERSION 0.7
FIELDS x y z rgb
SIZE 4 4 4 4
TYPE F F F F
COUNT 1 1 1 1
WIDTH 1048
HEIGHT 1
VIEWPOINT 0 0 0 1 0 0 0
POINTS 1048
DATA ascii
0.76059622 -0.37895432 2.822 2.0189044e-38
0.80359817 -0.37357908 2.822 2.1385788e-38
0.80897337 -0.37895432 2.822 2.1109922e-38
0.86635721 -0.37586573 2.799 2.1756372e-38
-0.31714287 0.63287622 1.48 1.4197768e-38
-0.29600286 0.63268864 1.473 1.4657659e-38
0.54728478 0.33614954 2.9170001 1.889579e-38
-0.22693335 0.61596197 1.48 1.484097e-38
0.59173435 0.33614954 2.9170001 1.8712826e-38
0.60840291 0.33614954 2.9170001 1.834477e-38
-0.59206957 0.42245811 1.649 1.4656221e-38
0.85388672 0.92368674 2.4430001 6.4501208e-40
0.28891715 1.0645686 2.733 3.7800194e-39
0.12218001 0.080460005 3.1290002 2.0742215e-38
-0.66473335 0.37823811 1.6900001 1.4470031e-38
0.16390002 0.080460005 3.1290002 2.0556744e-38
-0.63237625 0.36661813 1.6810001 1.4104485e-38
0.20562002 0.080460005 3.1290002 2.0281602e-38
-0.59178573 0.37085241 1.6570001 1.4470755e-38
0.23542002 0.062580004 3.1290002 2.0371994e-38
0.26284668 0.044300001 3.1010001 2.0004291e-38
0.32191336 0.079740003 3.1010001 2.0189393e-38
0.81536007 0.85814863 2.4960001 4.6097955e-40
1.1409715 0.88325721 2.46 9.4710961e-41
-0.13359049 0.37823811 1.6900001 1.5393429e-38
1.1576686 0.88667434 2.4960001 2.7838476e-40
1.2242286 0.85339433 2.4960001 1.3827188e-38
1.2670172 0.87241149 2.4960001 7.1923493e-39
1.3050516 0.86290294 2.4960001 1.3369088e-38
-1.0335829 0.08838667 1.8940001 9.3996354e-39
-1.4642859 0.89731437 2.46 3.30971e-39
0.20844477 0.46848479 2.1670001 1.1067343e-39
-1.0132334 0.12015334 1.8830001 8.5713195e-39
-0.20682383 -0.17500478 3.3410001 4.694099e-39
-1.4361715 0.92542863 2.46 3.5891317e-39
-0.97053432 0.094037145 1.863 1.34548e-38
-0.16864096 -0.20682383 3.3410001 2.2863078e-38
-0.12290572 -0.21114573 3.3090003 2.2586493e-38
-0.079547621 -0.19409621 3.3410001 2.2218072e-38
-0.040968575 -0.17963144 3.3090003 2.2125155e-38
1.2249877 -0.047210481 2.6090002 2.1108489e-38
0.6205886 0.48268002 2.194 5.3535823e-39
1.2498354 -0.052180003 2.6090002 2.1202481e-38
1.269843 -0.061642863 2.5890002 2.1386869e-38
1.0552096 0.48268002 2.194 6.2744862e-39
-1.23176 -0.14433144 2.0760002 9.954254e-39
1.0593886 0.47850099 2.194 5.8138766e-39
-1.2100134 -0.16710667 2.1140001 9.9553372e-39
0.76059622 -0.3359524 2.822 2.0465272e-38
0.7982229 -0.3359524 2.822 2.1019167e-38
0.83047432 -0.33057716 2.822 2.138723e-38
0.86102575 -0.32788289 2.799 2.184821e-38
-0.31150478 0.66106671 1.48 1.4840254e-38
0.50283527 0.3583743 2.9170001 1.5034e-38
-0.29479715 0.65526003 1.4670001 1.4838822e-38
0.54728478 0.38059908 2.9170001 1.8436967e-38
-0.2241143 0.66106671 1.48 1.4840607e-38
0.58617812 0.38059908 2.9170001 1.8344048e-38
0.59729052 0.3583743 2.9170001 1.8712107e-38
-0.44426003 -0.29464668 1.603 1.1245349e-38
-0.42104003 -0.29336002 1.5960001 1.0878363e-38
0.63216287 1.0101572 2.2810001 4.4239301e-39
-0.68404764 0.42008573 1.6900001 1.4930283e-38
0.12218001 0.12218001 3.1290002 2.0557826e-38
-0.67117149 0.42008573 1.6900001 1.5022484e-38
0.16390002 0.12218001 3.1290002 2.0373431e-38
-0.6325534 0.42223337 1.6730001 1.4838455e-38
0.20562002 0.086420007 3.1290002 2.0373434e-38
0.21158001 0.086420007 3.1290002 2.0373073e-38
0.31010002 0.085646674 3.1010001 2.0005374e-38
0.85514289 0.93011433 2.46 5.5316958e-40
1.1386515 0.92946291 2.4960001 3.6877972e-40
-0.13359049 0.42008573 1.6900001 1.5578175e-38
1.1719315 0.92946291 2.4960001 4.6169421e-40
1.2194743 0.89618289 2.4960001 1.1045413e-39
1.26732 0.92748004 2.4780002 1.1052672e-39
1.2720401 0.92748004 2.4780002 8.290404e-40
-1.0299753 0.14610858 1.8940001 8.8486183e-39
-0.21955144 -0.14954953 3.3410001 7.4628182e-39
-1.0132334 0.16678001 1.8830001 8.2965291e-39
-0.20682383 -0.16864096 3.3410001 5.0710988e-39
-0.16702573 -0.16702573 3.3090003 2.3047471e-38
0.3714762 0.67378098 2.6900001 1.9342963e-39
-0.12290572 -0.16702573 3.3090003 2.2494656e-38
-0.078785717 -0.16702573 3.3090003 2.2218072e-38
-0.040968575 -0.16702573 3.3090003 2.2126231e-38
0.5913353 0.53282863 2.194 9.7673404e-39
1.2249877 -0.042240955 2.6090002 2.1109922e-38
0.59969336 0.54954481 2.194 9.6686595e-39
1.2498354 -0.042240955 2.6090002 2.1018083e-38
1.3092943 -0.032054286 2.5890002 2.0833335e-38
-0.24548858 0.2776086 2.4090002 7.2827247e-39
-1.2309258 -0.12528001 2.0880001 1.0137573e-38
-1.2100134 -0.11476 2.1140001 1.0138284e-38
-1.1818267 -0.08657334 2.1140001 1.0045369e-38
0.09723334 0.41949239 2.9170001 3.7785831e-39
0.80359817 -0.28220001 2.822 2.1110643e-38
0.83584958 -0.2660743 2.822 2.1479787e-38
0.84660006 -0.29295048 2.822 2.1663095e-38
0.50420862 0.39399907 2.8930001 4.8881564e-39
0.54728478 0.41949239 2.9170001 1.7791967e-38
-0.47245431 0.29312858 3.6210003 4.0555329e-39
0.59173435 0.41949239 2.9170001 1.8159652e-38
0.6199286 0.42155147 2.8930001 1.816036e-38
-0.062228575 0.84291434 1.9800001 2.5800357e-39
-0.039600004 0.84291434 1.9800001 2.027578e-39
0.71911716 0.42155147 2.8930001 1.7421733e-38
-0.44426003 -0.25190002 1.603 1.1613048e-38
-0.42104003 -0.25384003 1.5960001 1.1247151e-38
-0.37925908 -0.25333905 1.5740001 1.1338262e-38
-0.69692385 0.46515241 1.6900001 1.5023923e-38
0.12218001 0.16390002 3.1290002 2.0281238e-38
-0.67439049 0.46193337 1.6900001 1.5023551e-38
0.16390002 0.16390002 3.1290002 2.0283389e-38
-0.6325534 0.45091337 1.6730001 1.502356e-38
0.19370002 0.16390002 3.1290002 2.0373431e-38
0.23922002 0.15062001 3.1010001 2.0096845e-38
0.85196006 0.95580006 2.4780002 3.0395551e-39
-1.4007087 0.33716574 2.3760002 5.0675367e-39
-1.3916572 0.33716574 2.3760002 4.9767914e-39
1.0720915 0.96749723 2.4960001 2.674046e-39
1.1386515 0.95798862 2.4960001 5.5316817e-40
-0.12715238 0.46515241 1.6900001 1.5852232e-38
1.1814401 0.97225147 2.4960001 2.1205051e-39
-0.12393335 0.46515241 1.6900001 1.5667482e-38
1.2242286 0.95798862 2.4960001 4.6277041e-40
1.2289829 0.95323437 2.4960001 3.7058739e-40
1.2720401 0.95580006 2.4780002 8.2976207e-40
-1.0299753 0.21104573 1.8940001 8.1114176e-39
-0.21318763 -0.12409429 3.3410001 6.8206914e-39
-1.0132334 0.18830001 1.8830001 7.6518968e-39
-0.20046002 -0.12409429 3.3410001 3.3993665e-39
-0.16227715 -0.12409429 3.3410001 2.258577e-38
-0.12290572 -0.12290572 3.3090003 2.2217712e-38
-0.078785717 -0.12290572 3.3090003 2.230918e-38
1.180262 0.017393334 2.6090002 2.0648947e-38
0.5913353 0.55372387 2.194 1.060032e-38
1.2249877 0.0074542863 2.6090002 2.0648946e-38
0.6205886 0.57879812 2.194 5.2360988e-39
1.2349267 0.017393334 2.6090002 2.0557113e-38
-0.54372001 -0.34109145 3.5460002 1.7513218e-38
-1.2180667 -0.082546674 2.1140001 9.9538882e-39
0.080564767 0.46394193 2.9170001 3.0445956e-39
-1.1825629 -0.050023813 2.1010001 9.8616814e-39
0.1194581 0.46394193 2.9170001 3.2268527e-39
0.76059622 -0.24994859 2.822 2.0466354e-38
0.80359817 -0.24994859 2.822 2.1111001e-38
0.81434864 -0.24994859 2.822 2.1110285e-38
0.85569435 -0.24791144 2.799 2.1664174e-38
0.53061622 0.45838574 2.9170001 1.1525551e-38
0.59173435 0.45838574 2.9170001 1.825221e-38
0.62507147 0.44727337 2.9170001 1.806602e-38
-0.04714286 0.88062865 1.9800001 4.514695e-39
-0.039600004 0.88062865 1.9800001 3.6881713e-39
0.20681144 1.01504 2.4960001 7.3792503e-39
0.2210743 1.01504 2.4960001 7.9281067e-39
-0.45647335 -0.19999334 1.603 1.1431899e-38
0.38002479 -0.4960629 3.0460002 1.5761854e-38
0.24702859 0.88440007 1.9800001 1.9350376e-39
-0.42222002 -0.21035334 1.5890001 1.1431541e-38
0.42063811 -0.4960629 3.0460002 1.5762573e-38
0.36782861 1.0144572 2.46 9.4028851e-39
-0.38055718 -0.21042573 1.567 1.1615212e-38
0.44964764 -0.4960629 3.0460002 1.585405e-38
0.50316668 -0.49741623 3.0190001 1.622319e-38
0.50891715 -0.49741623 3.0190001 1.6222832e-38
0.54588574 1.0144572 2.46 9.7727284e-39
0.080460005 0.19370002 3.1290002 2.0373431e-38
0.56813717 1.01504 2.4960001 8.8493329e-39
-0.68726671 0.50700003 1.6900001 1.5207587e-38
0.10430001 0.20562002 3.1290002 2.0280876e-38
0.62518859 1.0055315 2.4960001 9.2088711e-40
-0.67079908 0.50750196 1.6810001 1.5115753e-38
0.16390002 0.20562002 3.1290002 2.01894e-38
-0.63270003 0.48681432 1.6650001 1.502356e-38
0.19370002 0.18774001 3.1290002 2.0189039e-38
0.68699431 1.0102857 2.4960001 4.6072493e-39
0.22150001 0.19787334 3.1010001 2.0279077e-38
0.73453718 1.01504 2.4960001 4.4242916e-39
0.7915886 1.01504 2.4960001 3.5959701e-39
0.81765717 1.0144572 2.46 2.8580645e-39
-1.3972201 0.3556143 2.4090002 3.407644e-39
-1.3926315 0.36938003 2.4090002 3.4094545e-39
-1.3513343 0.37855718 2.4090002 3.7778488e-39
-1.3101944 0.36432001 2.3760002 3.8700697e-39
-0.13037144 0.50700003 1.6900001 1.0047886e-38
1.1766858 0.98651433 2.4960001 2.2112658e-39
-0.12393335 0.4844667 1.6900001 8.1128651e-39
1.2004572 0.97700578 2.4960001 2.6747144e-39
1.2527543 0.98651433 2.4960001 2.7647773e-39
1.3050516 1.0007772 2.4960001 5.5318639e-40
-1.0335829 0.25072953 1.8940001 8.0181317e-39
-1.0132334 0.25286001 1.8830001 1.1795612e-38
-0.19409621 -0.079547621 3.3410001 9.2316142e-41
-0.16864096 -0.079547621 3.3410001 2.3047823e-38
-0.078785717 -0.078785717 3.3090003 2.221591e-38
0.46370479 0.76088578 2.6900001 9.9556721e-39
0.46882859 0.76088578 2.6900001 1.0047513e-38
1.180262 0.077027626 2.6090002 2.037163e-38
1.2249877 0.077027626 2.6090002 1.9911381e-38
1.2349267 0.081997149 2.6090002 1.9911731e-38
-0.55047435 -0.32758287 3.5460002 1.6779614e-38
-0.54372001 -0.32758287 3.5460002 1.7789079e-38
-1.1898801 -0.026173335 2.1140001 9.5861735e-39
0.080564767 0.50283527 2.9170001 3.1360863e-39
-1.1818267 -0.042280003 2.1140001 9.4036123e-39
0.11390191 0.50283527 2.9170001 3.5037941e-39
-0.0017933334 0.25286001 1.8830001 1.6499774e-38
0.012626668 0.25072953 1.8940001 1.5761856e-38
0.76059622 -0.20694669 2.822 2.0833335e-38
0.80359817 -0.20694669 2.822 2.1203201e-38
0.8450315 -0.21059144 2.799 2.1571619e-38
0.8503629 -0.1839343 2.799 2.1479065e-38
-0.11564001 1.02188 2.4780002 2.7593949e-39
0.54728478 0.50283527 2.9170001 1.7150908e-38
0.56950957 0.50283527 2.9170001 1.7974544e-38
0.59788668 0.50420862 2.8930001 1.7882355e-38
0.59002668 0.38044193 2.3920002 1.7512854e-38
0.61716288 0.37855718 2.4090002 1.5209007e-38
0.64010578 0.37855718 2.4090002 4.5234419e-39
0.20681144 1.0340573 2.4960001 2.6762138e-39
0.21632001 1.0388114 2.4960001 4.0548267e-39
-0.45952669 -0.16640668 1.603 1.1340437e-38
0.37422287 -0.46125147 3.0460002 1.6223906e-38
0.33517715 1.0388114 2.4960001 5.9873111e-39
-0.42222002 -0.15587334 1.5890001 1.1984349e-38
0.42063811 -0.46125147 3.0460002 1.5856929e-38
0.37796575 1.0245486 2.4960001 9.1273786e-39
-0.38055718 -0.16863906 1.567 1.1799611e-38
0.44964764 -0.46125147 3.0460002 1.6499421e-38
0.41600004 1.029303 2.4960001 1.0325187e-38
0.50186479 -0.43804383 3.0460002 1.6683812e-38
0.46354288 1.0340573 2.4960001 1.0417392e-38
0.51466763 -0.46291336 3.0190001 1.6224989e-38
0.50633144 1.029303 2.4960001 1.0415952e-38
0.54912001 1.0245486 2.4960001 9.4947093e-39
0.56813717 1.0197943 2.4960001 9.1259212e-39
-0.70336193 0.54562861 1.6900001 1.5207234e-38
0.11622 0.25330001 3.1290002 1.9912811e-38
0.62043434 1.0340573 2.4960001 2.8591463e-39
-0.67400098 0.54912668 1.6810001 1.5116835e-38
0.16390002 0.25330001 3.1290002 1.9912092e-38
0.66322291 1.029303 2.4960001 3.7810956e-39
-0.63281626 0.54759908 1.6570001 1.5208309e-38
0.18178001 0.25330001 3.1290002 1.9910662e-38
0.71076578 1.0340573 2.4960001 3.9636932e-39
0.75355434 1.0388114 2.4960001 3.6871021e-39
0.7915886 1.029303 2.4960001 3.2279148e-39
0.81765717 1.0191429 2.46 2.8584443e-39
-1.4018086 0.40608859 2.4090002 3.9608093e-39
-1.3926315 0.41985431 2.4090002 3.8671984e-39
-1.3513343 0.40608859 2.4090002 3.8693466e-39
-0.13037144 0.54884768 1.6900001 1.5117558e-38
-0.12393335 0.52631432 1.6900001 1.1428674e-38
1.2674859 1.0238286 2.46 6.7352794e-39
1.3098058 1.0483201 2.4960001 1.0417719e-38
-1.0371906 0.29402098 1.8940001 4.1448475e-39
-0.21318763 -0.015909525 3.3410001 7.0969223e-39
-1.0132334 0.28514001 1.8830001 1.6570649e-39
-0.20046002 -0.041364763 3.3410001 3.6900042e-39
-0.16702573 -0.040968575 3.3090003 2.2958134e-38
-0.12290572 -0.034665715 3.3090003 2.1755297e-38
-0.078785717 -0.040968575 3.3090003 2.1756375e-38
0.46370479 0.7916286 2.6900001 1.0506707e-38
0.47395241 0.77625722 2.6900001 1.0321599e-38
1.180262 0.12672287 2.6090002 1.9635154e-38
1.2249877 0.11678382 2.6090002 1.935893e-38
1.2398963 0.10684477 2.6090002 1.9634429e-38
-0.53021145 -0.29381144 3.5460002 1.7786177e-38
-0.50319433 -0.28705716 3.5460002 6.2715155e-39
-0.4626686 -0.26679429 3.5460002 4.7038086e-39
-1.1898801 0.026173335 2.1140001 9.4928989e-39
0.080564767 0.54728478 2.9170001 1.6598885e-39
-0.044595242 0.29076096 1.8730001 9.2184742e-39
-1.1818267 0.018120002 2.1140001 9.4929087e-39
0.10278953 0.54728478 2.9170001 1.8435609e-39
-0.026900001 0.29590002 1.8830001 8.013471e-39
0.71759433 -0.13169335 2.822 2.0741853e-38
0.023449525 0.26516002 1.8940001 5.9859379e-39
0.76059622 -0.16394477 2.822 2.0926612e-38
0.80359817 -0.14244382 2.822 2.1202833e-38
0.81434864 -0.13706858 2.822 2.1387225e-38
0.8503629 -0.16794001 2.799 2.175529e-38
0.54728478 0.54728478 2.9170001 1.6414422e-38
0.56950957 0.54728478 2.9170001 1.7789798e-38
0.59788668 0.53727144 2.8930001 1.7789809e-38
0.58963144 0.38773432 2.4090002 1.7422808e-38
0.63092864 0.38314575 2.4090002 2.6784461e-39
0.66304862 0.41985431 2.4090002 3.6911701e-39
-0.46563336 -0.099233337 1.603 1.1892871e-38
-0.45952669 -0.12671334 1.603 1.1708493e-38
0.37422287 -0.42063811 3.0460002 1.6777441e-38
-0.42009431 -0.1249743 1.5810001 1.1892163e-38
0.42063811 -0.42063811 3.0460002 1.6868569e-38
0.46125147 -0.42063811 3.0460002 1.6684535e-38
0.4960629 -0.42063811 3.0460002 1.6777442e-38
0.51466763 -0.42266002 3.0190001 1.6777444e-38
0.080460005 0.28310001 3.1290002 1.9635147e-38
-0.70980006 0.59069526 1.6900001 1.5025005e-38
0.11026001 0.29502001 3.1290002 1.9359276e-38
-0.67400098 0.58434767 1.6810001 1.5208317e-38
0.16390002 0.29502001 3.1290002 1.9267083e-38
-0.63281626 0.59178573 1.6570001 1.4841671e-38
0.16986001 0.29502001 3.1290002 1.9267442e-38
-1.3964725 0.42600384 2.3920002 4.2352607e-39
-1.3834543 0.44738576 2.4090002 3.7796607e-39
0.9276067 0.89719337 2.2810001 1.6598717e-39
-1.3513343 0.46115145 2.4090002 3.4126802e-39
-0.29740953 0.41299051 1.48 1.4472193e-38
-0.31464955 -0.41845146 3.4060001 2.3325494e-38
-0.13359049 0.59069526 1.6900001 1.5209035e-38
-0.12393335 0.59069526 1.6900001 1.4565822e-38
0.030957146 0.71614194 2.1670001 1.0177561e-39
0.71752292 0.16027144 2.5890002 2.0370537e-38
0.74791336 0.14660096 2.6090002 1.5860912e-38
-1.0371906 0.32288194 1.8940001 3.961538e-39
0.79760861 0.14163144 2.6090002 5.6313043e-39
-1.0149877 0.33714002 1.8730001 4.7884064e-39
0.84233433 0.13666192 2.6090002 6.553573e-39
-0.20682383 0.003181905 3.3410001 7.3706211e-39
0.88706005 0.14660096 2.6090002 5.8163723e-39
-0.16702573 0.0031514289 3.3090003 2.2399565e-38
0.92681623 0.16647905 2.6090002 5.722369e-39
-0.12290572 0.028362859 3.3090003 2.1296107e-38
-0.078785717 0.0094542867 3.3090003 2.1387594e-38
0.45858097 0.84286672 2.6900001 9.6787419e-39
0.46882859 0.84286672 2.6900001 9.8631331e-39
1.180262 0.16647905 2.6090002 1.9358921e-38
1.2150487 0.16647905 2.6090002 1.8991212e-38
1.2402544 0.13068287 2.5890002 1.926673e-38
0.84207815 0.71252769 2.194 8.301166e-40
0.92997152 0.84286672 2.6900001 9.1944657e-40
0.88386863 0.71670669 2.194 5.5425278e-40
0.95559055 0.84286672 2.6900001 9.4035997e-39
-1.2019601 0.074493341 2.1140001 9.1255723e-39
-0.0022628573 0.46388575 2.3760002 2.2994971e-39
0.080564767 0.55839717 2.9170001 1.1056315e-39
1.2124887 0.80578387 2.6690001 6.4789455e-40
-0.044357147 0.33534002 1.863 1.5300872e-38
-1.1818267 0.066440001 2.1140001 9.4000054e-39
0.039002858 0.46115145 2.4090002 1.4737078e-39
0.086120956 0.55839717 2.9170001 1.106356e-39
-0.030486669 0.31024668 1.8830001 9.3099481e-39
0.047840003 0.46245337 2.3920002 1.1063377e-39
0.76059622 -0.1263181 2.822 2.0926609e-38
0.80359817 -0.1263181 2.822 2.0928052e-38
0.83047432 -0.099441908 2.822 2.1387225e-38
0.8503629 -0.08796858 2.799 2.1387231e-38
0.54728478 0.57506573 2.9170001 1.6409047e-38
0.58617812 0.56950957 2.9170001 1.7972753e-38
0.59788668 0.58135527 2.8930001 1.7605047e-38
0.62634003 0.46115145 2.4090002 1.847591e-39
0.66304862 0.46115145 2.4090002 2.2185497e-39
-0.4686867 -0.083966672 1.603 1.1800683e-38
-0.46258003 -0.083966672 1.603 1.1984353e-38
0.37422287 -0.36842099 3.0460002 1.7421736e-38
-0.42009431 -0.082814291 1.5810001 1.2442444e-38
0.42063811 -0.38002479 3.0460002 1.7329187e-38
0.46125147 -0.38002479 3.0460002 1.7054389e-38
0.46705335 -0.38002479 3.0460002 1.7145865e-38
-0.72911435 0.63254291 1.6900001 1.4840961e-38
0.080460005 0.33674002 3.1290002 1.9726982e-38
-0.71623814 0.63254291 1.6900001 1.5208671e-38
0.10430001 0.33674002 3.1290002 1.9081972e-38
-0.67400098 0.62277049 1.6810001 1.5116118e-38
0.16390002 0.31290001 3.1290002 1.8990861e-38
-0.63281626 0.60125434 1.6570001 1.4841324e-38
-1.3961829 0.50461715 2.3760002 3.7785887e-39
-1.3651001 0.49786004 2.4090002 4.7887848e-39
-0.87935817 -0.3161543 1.8140001 1.1247158e-38
0.32615525 0.062029529 2.1010001 8.2050579e-39
-1.3513343 0.50703716 2.4090002 3.9633429e-39
-0.97053432 0.0017742858 1.863 1.2811943e-38
-1.3577381 0.93195146 2.2810001 3.7692518e-39
-0.75987911 -0.29616669 1.7770001 1.1155325e-38
-0.12715238 0.63254291 1.6900001 1.4932804e-38
-0.12393335 0.63254291 1.6900001 1.4657302e-38
-0.0061914288 0.75329053 2.1670001 4.8733896e-39
0.039465718 0.75400293 2.181 1.8446146e-39
0.043620002 0.75400293 2.181 1.7531379e-39
0.38878003 0.76433623 2.7770002 2.766585e-39
-1.0444058 0.36256573 1.8940001 4.3306849e-39
-0.21955144 0.079547621 3.3410001 7.0047183e-39
-1.0149877 0.36568096 1.8730001 5.430536e-39
-0.20682383 0.079547621 3.3410001 7.0965496e-39
-0.16702573 0.078785717 3.3090003 1.7057278e-38
0.92464292 0.17013429 2.5890002 4.7114527e-39
-0.12290572 0.04727143 3.3090003 2.1294672e-38
0.96160293 0.18635716 2.6090002 5.6305223e-39
-0.078785717 0.072482862 3.3090003 2.1110999e-38
0.43808573 0.88385719 2.6900001 9.4947093e-39
0.46882859 0.8736096 2.6900001 9.8624031e-39
1.180262 0.20126572 2.6090002 1.8897234e-38
1.2200181 0.18138763 2.6090002 1.8990509e-38
1.2402544 0.20958573 2.5890002 1.9172741e-38
0.7295267 0.88712484 2.6690001 8.2940474e-40
0.83774292 0.86848575 2.6900001 5.7139626e-39
0.88712484 0.88712484 2.6690001 7.382755e-40
0.84539717 0.74569434 2.181 9.2160878e-40
0.92997152 0.88385719 2.6900001 1.3022561e-39
0.87968957 0.72088575 2.194 6.464414e-40
0.97096199 0.8787334 2.6900001 9.033727e-39
1.0888096 0.8736096 2.6900001 5.5604364e-40
1.1006448 0.87187338 2.6690001 5.5534579e-40
-1.1939068 0.08657334 2.1140001 9.0344388e-39
-0.02505905 0.48067814 2.3920002 1.6222115e-38
-0.044357147 0.36727718 1.863 1.5853698e-38
-1.1818267 0.11476 2.1140001 9.0326508e-39
0.0022628573 0.46841145 2.3760002 2.0254508e-39
-0.027057145 0.35895813 1.8940001 1.5115407e-38
0.76059622 -0.045689527 2.822 2.1110281e-38
0.80359817 -0.083316199 2.822 2.129539e-38
0.83047432 -0.083316199 2.822 2.1294671e-38
0.85569435 -0.045317147 2.799 2.1295393e-38
0.53617239 0.63062763 2.9170001 1.2163697e-38
0.58686572 0.62543911 2.8930001 1.705223e-38
0.59788668 0.62543911 2.8930001 1.7051873e-38
0.62634003 0.50703716 2.4090002 1.6534313e-39
0.67681432 0.50703716 2.4090002 2.1198703e-39
0.71811146 0.50703716 2.4090002 3.0479643e-39
0.73646575 0.50703716 2.4090002 3.7862468e-39
-0.34766573 0.22931144 2.5890002 3.8736682e-39
-0.47174004 -0.035113335 1.603 1.2444244e-38
0.33360955 -0.31040192 3.0460002 1.7791967e-38
-0.46258003 -0.041220002 1.603 1.2443166e-38
0.37422287 -0.32780764 3.0460002 1.7607919e-38
-0.4212324 -0.040474288 1.5740001 1.1984709e-38
0.42063811 -0.33360955 3.0460002 1.7514653e-38
0.44964764 -0.31620383 3.0460002 1.7974553e-38
0.49166575 -0.33065242 3.0190001 1.7882714e-38
1.0341258 0.50461715 2.3760002 7.7549889e-39
-0.73233336 0.67117149 1.6900001 1.5299423e-38
0.074500002 0.37250003 3.1290002 1.3808785e-38
-0.71882766 0.67400098 1.6810001 1.5207946e-38
0.12218001 0.36654001 3.1290002 2.1849987e-38
-0.67400098 0.66759717 1.6810001 1.5207599e-38
0.12814 0.37250003 3.1290002 2.3231125e-38
-1.3873601 0.54902101 2.3920002 4.1477314e-39
-1.3513343 0.5483343 2.4090002 4.7902337e-39
-0.848261 -0.28851241 1.8140001 1.1430825e-38
0.32615525 0.12606001 2.1010001 4.4232771e-39
-0.84480578 -0.29196763 1.8140001 1.1798866e-38
-0.80176669 -0.29574764 1.7950001 1.1704542e-38
-0.75987911 -0.29278192 1.7770001 1.1247161e-38
-0.12715238 0.67439049 1.6900001 1.4932456e-38
-0.12071429 0.67439049 1.6900001 1.4656942e-38
-0.018694287 0.78723717 2.181 1.5393739e-38
0.014446667 0.80282193 2.1670001 1.1085028e-39
1.266 -0.45093718 2.5320001 2.3325494e-38
1.2852916 -0.45576003 2.5320001 2.3325496e-38
-1.0311668 0.42143336 1.8830001 4.6069116e-39
1.3238744 -0.43164575 2.5320001 2.323294e-38
-0.22591525 0.098639056 3.3410001 6.6363001e-39
-1.0149877 0.42276287 1.8730001 4.0537379e-39
-0.20682383 0.12409429 3.3410001 7.0054217e-39
-0.16702573 0.12290572 3.3090003 1.3652509e-38
-0.097694293 0.11660287 3.3090003 2.101844e-38
0.42271432 0.92997152 2.6900001 9.3103139e-39
0.96902579 0.21944858 2.5890002 5.2599349e-39
-0.078785717 0.11660287 3.3090003 2.0834412e-38
0.46370479 0.92997152 2.6900001 9.8627534e-39
1.0013591 0.24102192 2.6090002 4.8940377e-39
0.47907624 0.92997152 2.6900001 1.0229393e-38
1.180262 0.25096098 2.6090002 1.8529165e-38
1.2001401 0.25096098 2.6090002 1.8621355e-38
1.235323 0.24903716 2.5890002 1.8621008e-38
0.74039054 0.91972387 2.6900001 5.5283326e-40
1.3092943 0.23424287 2.5890002 1.8988347e-38
0.77113336 0.92997152 2.6900001 3.6985591e-40
0.82749528 0.92997152 2.6900001 4.6169561e-40
0.84799051 0.91460007 2.6900001 2.7766729e-40
0.92997152 0.90435243 2.6900001 5.5461852e-40
0.95559055 0.89410484 2.6900001 5.068589e-39
-1.1898801 0.16308001 2.1140001 8.755708e-39
-0.044357147 0.41695717 1.863 1.4345489e-38
-1.1818267 0.16710667 2.1140001 8.7567631e-39
-0.030324765 0.40492478 1.8730001 1.5852599e-38
0.76059622 -0.040314287 2.822 2.1202114e-38
0.7982229 -0.0080628581 2.822 2.1019156e-38
0.8450315 -0.039985716 2.799 2.1109205e-38
0.85569435 -0.039985716 2.799 2.1203914e-38
0.53617239 0.6750772 2.9170001 1.1613031e-38
0.59788668 0.67503339 2.8930001 1.6315031e-38
0.62175149 0.52998006 2.4090002 1.3823871e-38
0.67681432 0.51162577 2.4090002 2.7591301e-39
0.71352291 0.52080292 2.4090002 5.3579235e-39
0.75940859 0.52080292 2.4090002 5.9993329e-39
0.80070579 0.52998006 2.4090002 5.9986196e-39
-0.47784671 0.013740001 1.603 1.2352411e-38
0.84200293 0.53456861 2.4090002 5.2632154e-39
-0.46258003 0.022900002 1.603 1.2168384e-38
0.38002479 -0.2929962 3.0460002 1.8158948e-38
0.88788861 0.53456861 2.4090002 5.2617832e-39
-0.4212324 0.0014990477 1.5740001 1.2167655e-38
0.42063811 -0.2929962 3.0460002 1.8159657e-38
0.92918575 0.5483343 2.4090002 6.1830067e-39
0.44384575 -0.2813924 3.0460002 1.8067467e-38
0.97048295 0.53456861 2.4090002 5.17174e-39
0.49166575 -0.27889812 3.0190001 1.8344055e-38
1.01178 0.52080292 2.4090002 5.9979078e-39
1.0439 0.54374576 2.4090002 6.5514417e-39
-0.73555243 0.71301907 1.6900001 1.5022847e-38
-0.71242386 0.71882766 1.6810001 1.5482012e-38
-0.67075717 0.7183286 1.6650001 1.5115752e-38
-1.3651001 0.58045435 2.4090002 4.609413e-39
-1.3513343 0.58963144 2.4090002 2.7723499e-39
-0.86553723 -0.23322859 1.8140001 1.2166586e-38
0.33220002 0.16308001 2.1140001 4.5208817e-39
-1.3099048 0.55813336 2.3920002 4.7916728e-39
-0.84480578 -0.25050479 1.8140001 1.1982908e-38
-0.80176669 -0.25130001 1.7950001 1.20744e-38
-0.75987911 -0.23862574 1.7770001 1.1524105e-38
-0.13037144 0.70980006 1.6900001 1.5848265e-38
-0.12393335 0.70336193 1.6900001 1.5209381e-38
-0.010385715 0.83708864 2.181 4.9598903e-39
0.035311431 0.84124291 2.181 1.6591556e-39
-0.35611144 0.16702573 3.3090003 2.1288138e-38
0.047774289 0.83708864 2.181 1.6595199e-39
-0.33090001 0.16702573 3.3090003 2.0921151e-38
-1.0311668 0.42502004 1.8830001 4.4239623e-39
1.3238744 -0.42200002 2.5320001 2.3325134e-38
-1.0149877 0.42989811 1.8730001 4.3285255e-39
-0.19409621 0.16864096 3.3410001 1.1610904e-38
-0.16702573 0.16702573 3.3090003 1.2912806e-38
-0.078785717 0.14811715 3.3090003 2.1018443e-38
0.46370479 0.97096199 2.6900001 9.4947023e-39
1.0112982 0.25593048 2.6090002 4.8000484e-39
0.47907624 0.97096199 2.6900001 9.5854602e-39
1.0311762 0.29568669 2.6090002 4.8908021e-39
1.180262 0.27083907 2.6090002 1.8711756e-38
1.2051096 0.29568669 2.6090002 1.8344053e-38
0.71477145 0.97096199 2.6900001 5.5281645e-40
1.2451859 0.27369431 2.5890002 1.8436258e-38
0.74039054 0.97096199 2.6900001 3.6988814e-40
0.78650481 0.97096199 2.6900001 4.6062782e-40
0.84286672 0.97096199 2.6900001 4.6061802e-40
0.84799051 0.97096199 2.6900001 4.6061802e-40
0.90237623 0.96846581 2.6690001 3.6878112e-40
-1.1858534 0.17113334 2.1140001 8.6652976e-39
-1.1818267 0.21140002 2.1140001 8.4798245e-39
-0.027057145 0.45636383 1.8940001 1.5391993e-38
0.71759433 0.013438096 2.822 2.0558186e-38
0.76059622 0.0026876193 2.822 2.0741859e-38
0.7982229 0.0026876193 2.822 2.0741499e-38
0.82903719 0.0026657144 2.799 2.0741499e-38
0.53617239 0.69174576 2.9170001 1.124748e-38
0.58135527 0.71911716 2.8930001 1.5578185e-38
0.59237623 0.71360672 2.8930001 1.5853688e-38
-0.48395336 0.062593341 1.603 1.2353127e-38
0.33360955 -0.22917525 3.0460002 1.8528446e-38
0.82694864 0.55357718 2.3920002 6.3663231e-39
-0.46360004 0.083600007 1.5960001 1.2628988e-38
0.38002479 -0.25238287 3.0460002 1.8251859e-38
0.86953431 0.5529229 2.4090002 5.9989825e-39
-0.4212324 0.073453337 1.5740001 1.2536445e-38
0.42063811 -0.25238287 3.0460002 1.8528801e-38
0.46125147 -0.25238287 3.0460002 1.8344775e-38
0.47441432 -0.25014573 3.0190001 1.8436249e-38
-0.74199051 0.74520957 1.6900001 1.474696e-38
-0.71882766 0.75404865 1.6810001 1.5115745e-38
-0.67075717 0.74687147 1.6650001 1.4839901e-38
-1.3834543 0.62634003 2.4090002 4.6094284e-39
-1.3513343 0.59880859 2.4090002 4.0569749e-39
-0.88281339 -0.18831049 1.8140001 1.1982918e-38
0.33220002 0.21140002 2.1140001 5.43848e-39
-1.3056687 0.59965718 2.3760002 4.7001849e-39
-0.84480578 -0.20904192 1.8140001 1.2165866e-38
-0.015457144 -0.49153718 3.2460001 2.0280522e-38
-0.80176669 -0.17950001 1.7950001 1.1983641e-38
0.0030914287 -0.49772003 3.2460001 1.9728435e-38
-0.75987911 -0.20816287 1.7770001 1.1890735e-38
0.064920001 -0.49772003 3.2460001 1.8714627e-38
-0.081008576 0.87863147 2.181 7.0050574e-39
0.10107429 -0.49924573 3.2160001 1.8344411e-38
-0.039465718 0.85786003 2.181 7.0915301e-39
0.16845715 -0.46861717 3.2160001 1.7607565e-38
0.030957146 0.84822577 2.1670001 1.2921653e-39
-0.35611144 0.17332858 3.3090003 2.0838348e-38
0.081491433 0.86715245 2.194 3.1303242e-39
-0.33090001 0.17332858 3.3090003 2.0656835e-38
0.085670479 0.86715245 2.194 2.7640612e-39
-0.26409811 0.18136859 3.3410001 2.0832203e-38
-1.0347534 0.49316669 1.8830001 4.8824055e-39
1.3238744 -0.3448343 2.5320001 2.3140024e-38
-0.21318763 0.20046002 3.3410001 2.0188681e-38
-1.0131172 0.48438004 1.863 4.5165167e-39
-0.20682383 0.20682383 3.3410001 2.0004294e-38
-0.16702573 0.21114573 3.3090003 2.0097204e-38
-0.078785717 0.21114573 3.3090003 2.064966e-38
0.46370479 1.0119524 2.6900001 9.6787279e-39
0.48932385 1.0119524 2.6900001 1.0046084e-38
1.0510544 0.32550383 2.6090002 4.7067808e-39
1.180262 0.32550383 2.6090002 1.8158943e-38
1.2051096 0.30562574 2.6090002 1.843589e-38
0.71477145 0.97608578 2.6900001 5.5245772e-40
1.2303915 0.30328289 2.5890002 1.8347649e-38
0.74039054 0.98120958 2.6900001 5.5245631e-40
0.80187625 0.99145722 2.6900001 3.6915106e-40
0.74916291 0.88537437 2.1670001 1.7517002e-39
0.84286672 1.0119524 2.6900001 4.6062642e-40
0.8787334 1.0017048 2.6900001 3.6878112e-40
0.89922863 1.0017048 2.6900001 3.6877832e-40
-1.2025725 0.22210573 2.1010001 8.7546234e-39
-1.1818267 0.25166669 2.1140001 8.7521122e-39
-0.023449525 0.47800955 1.8940001 1.493353e-38
0.71759433 0.045689527 2.822 2.0373076e-38
0.76059622 0.077940956 2.822 2.0372712e-38
0.78747243 0.077940956 2.822 2.0187609e-38
0.8450315 0.082637146 2.799 2.0189397e-38
-1.2816257 0.92665052 2.1670001 2.9520482e-39
0.5482924 0.75769055 2.8930001 1.4749139e-38
-1.2558039 0.92983818 2.194 3.6885469e-39
0.55380291 0.75769055 2.8930001 1.4932821e-38
-1.2234372 0.92848289 2.181 3.7828907e-39
0.59237623 0.74666959 2.8930001 1.5668221e-38
-0.49006003 0.12671334 1.603 1.2905583e-38
0.33360955 -0.20596763 3.0460002 1.8805027e-38
-0.46360004 0.12616001 1.5960001 1.2904862e-38
0.38002479 -0.20596763 3.0460002 1.8528808e-38
-0.42234385 0.12685239 1.567 1.2629358e-38
0.41483623 -0.20596763 3.0460002 1.8528802e-38
0.45716289 -0.20989239 3.0190001 1.8713195e-38
0.46866384 -0.19264096 3.0190001 1.8988704e-38
-1.3651001 0.67681432 2.4090002 4.976399e-39
-1.3513343 0.67681432 2.4090002 5.1593441e-39
-0.87935817 -0.16412382 1.8140001 1.2167311e-38
0.3360686 0.24857144 2.0880001 5.1611868e-39
-1.3101944 0.65849149 2.3760002 5.253325e-39
-0.84480578 -0.16757905 1.8140001 1.2166599e-38
-0.015457144 -0.46062288 3.2460001 2.0557112e-38
-0.80176669 -0.14530954 1.7950001 1.2441742e-38
0.0092742862 -0.46062288 3.2460001 1.9821339e-38
-0.11008858 0.89524865 2.181 5.9697304e-39
-0.75987911 -0.1607762 1.7770001 1.2074762e-38
0.058737148 -0.46062288 3.2460001 1.9267094e-38
-0.077312388 0.91312194 2.194 2.0301059e-39
0.094948575 -0.46249145 3.2160001 1.8621359e-38
0.16845715 -0.46249145 3.2160001 1.7607567e-38
0.17458287 -0.46249145 3.2160001 1.760649e-38
-1.0202143 0.54825431 1.863 5.7114319e-39
1.3238744 -0.3351886 2.5320001 2.2862365e-38
-0.25137049 0.25137049 3.3410001 8.6697019e-39
0.29461905 1.0426953 2.6900001 3.8732786e-39
-0.20682383 0.23864287 3.3410001 1.9180288e-38
0.33560956 1.0478191 2.6900001 4.1488272e-39
-0.16702573 0.24896288 3.3090003 1.7331324e-38
0.37660003 1.0478191 2.6900001 9.2181309e-39
0.42271432 1.0529429 2.6900001 9.4940031e-39
0.43808573 1.0529429 2.6900001 9.8624185e-39
0.5046953 1.0375715 2.6900001 1.0599604e-38
1.0510544 0.35532099 2.6090002 4.4291065e-39
0.54568577 1.0529429 2.6900001 9.0340899e-39
0.59180003 1.0478191 2.6900001 7.4674761e-39
0.62254292 1.0529429 2.6900001 6.0845402e-39
1.180262 0.38016859 2.6090002 1.7238067e-38
1.1951705 0.38016859 2.6090002 1.7696529e-38
1.235323 0.37725431 2.5890002 1.7973835e-38
0.74551433 1.0273238 2.6900001 9.2015423e-40
0.75815719 0.89109433 2.181 1.6591472e-39
0.83261913 1.0222001 2.6900001 5.5210038e-40
0.78357148 0.89640576 2.194 9.2517508e-40
0.83789909 0.917301 2.194 8.2867606e-40
-1.1905668 0.28213429 2.1010001 8.0181387e-39
-0.044357147 0.54825431 1.863 1.5209031e-38
-1.1818267 0.29596001 2.1140001 5.8104617e-39
-0.037460003 0.54762954 1.8730001 1.5116836e-38
0.71759433 0.1263181 2.822 1.9911016e-38
0.76059622 0.1263181 2.822 1.9818825e-38
0.78209722 0.1263181 2.822 1.9820611e-38
0.83970004 0.093300007 2.799 2.0279793e-38
-1.2892363 0.93401718 2.194 3.2264841e-39
0.54728478 0.80286956 2.9170001 1.2628995e-38
-1.2683411 0.93401718 2.194 3.5970603e-39
0.55380291 0.80177432 2.8930001 1.4288176e-38
-1.2234372 0.93263721 2.181 3.5077359e-39
-0.49311337 0.16640668 1.603 1.3088537e-38
0.33360955 -0.13634478 3.0460002 1.9266011e-38
-0.46360004 0.16872001 1.5960001 1.3089247e-38
0.38002479 -0.1595524 3.0460002 1.8713916e-38
-0.42234385 0.16863906 1.567 1.3364745e-38
0.42063811 -0.1595524 3.0460002 1.8896869e-38
0.44384575 -0.1595524 3.0460002 1.8989423e-38
0.48591527 -0.15813811 3.0190001 1.9082698e-38
-1.3651001 0.69516861 2.4090002 5.1586393e-39
-1.3513343 0.71811146 2.4090002 4.425393e-39
-0.87935817 -0.098474294 1.8140001 1.2809799e-38
0.33015716 0.25812286 2.1010001 4.241027e-39
-0.84480578 -0.1261162 1.8140001 1.2534277e-38
-0.021640001 -0.41734287 3.2460001 2.1112079e-38
-0.80176669 -0.12479524 1.7950001 1.2259143e-38
0.0030914287 -0.41734287 3.2460001 2.0649667e-38
0.04637143 -0.41734287 3.2460001 1.9912097e-38
0.088822864 -0.41348574 3.2160001 1.9266366e-38
0.16845715 -0.41961145 3.2160001 1.8067834e-38
0.18683429 -0.41961145 3.2160001 1.7884154e-38
1.2756459 -0.28696001 2.5320001 2.2861999e-38
-1.0480134 0.58263052 1.8940001 5.6189056e-39
1.3238744 -0.29178289 2.5320001 2.2770886e-38
-0.25137049 0.26409811 3.3410001 1.8442938e-39
-1.0131172 0.57309431 1.863 4.5157908e-39
-0.21114573 0.2741743 3.3090003 2.5815197e-39
-0.16702573 0.26156858 3.3090003 1.5129084e-38
-0.097694293 0.28047717 3.3090003 3.8711697e-39
-0.059877146 0.29308286 3.3090003 4.6097759e-39
0.43296194 1.0580667 2.6900001 9.9528162e-39
0.54568577 1.0631906 2.6900001 9.1262912e-39
1.0908105 0.4199248 2.6090002 3.9713653e-39
0.55080956 1.0580667 2.6900001 8.85007e-39
1.1106887 0.40998575 2.6090002 9.9654742e-39
1.180262 0.4199248 2.6090002 1.6501227e-38
1.2200181 0.4199248 2.6090002 1.6777456e-38
1.2402544 0.40191147 2.5890002 1.7513938e-38
1.0259563 0.97162861 2.194 5.5335202e-39
-1.1911544 0.30027431 2.0880001 3.8675543e-39
0.12398572 0.84585816 2.8930001 3.964052e-39
-1.1832001 0.29629716 2.0880001 3.6846078e-39
-0.019621907 0.58330578 1.8730001 1.5025367e-38
0.1515381 0.84585816 2.8930001 3.8718297e-39
0.71759433 0.13169335 2.822 1.9728063e-38
0.17358001 0.84585816 2.8930001 4.3317541e-39
0.76059622 0.13169335 2.822 1.9727347e-38
0.78209722 0.13706858 2.822 1.9726628e-38
0.81304294 0.13062 2.799 1.9727703e-38
0.54728478 0.81398195 2.9170001 1.2538232e-38
0.58135527 0.84585816 2.8930001 1.437856e-38
-1.2181925 0.97998673 2.194 2.1255456e-39
-0.49616671 0.20915335 1.603 1.4007968e-38
0.33360955 -0.12474096 3.0460002 1.8990862e-38
-0.46360004 0.18696001 1.5960001 1.2905948e-38
0.38002479 -0.12474096 3.0460002 1.9541153e-38
-0.42234385 0.21042573 1.567 1.2721555e-38
0.41483623 -0.12474096 3.0460002 1.880719e-38
0.46291336 -0.094882861 3.0190001 1.9542592e-38
0.48591527 -0.089132383 3.0190001 1.9358927e-38
-1.3645791 0.75860578 2.3920002 5.0678618e-39
-1.3467458 0.75940859 2.4090002 4.9771613e-39
-0.86208194 -0.081198104 1.8140001 1.2994189e-38
-0.84480578 -0.081198104 1.8140001 1.2994182e-38
-0.015457144 -0.38024575 3.2460001 2.0927332e-38
-0.80114865 -0.083346672 1.7860001 1.2535367e-38
0.0030914287 -0.38024575 3.2460001 2.0742939e-38
-0.75987911 -0.069387622 1.7770001 1.2259499e-38
0.04637143 -0.38024575 3.2460001 2.0188686e-38
0.094948575 -0.37673146 3.2160001 1.954296e-38
0.16233143 -0.37673146 3.2160001 1.8621715e-38
0.17458287 -0.37673146 3.2160001 1.8528802e-38
-1.0444058 0.6187067 1.8940001 1.5644699e-39
1.3238744 -0.23873144 2.5320001 2.249358e-38
-0.05357429 0.29938573 3.3090003 4.7009051e-39
1.09578 0.45968097 2.6090002 3.0494006e-39
1.1007496 0.45968097 2.6090002 3.2334303e-39
1.180262 0.46465051 2.6090002 1.6681651e-38
1.2150487 0.44477242 2.6090002 1.68693e-38
1.2303915 0.4610886 2.5890002 1.6777447e-38
0.96045434 -0.48673433 2.733 2.2862714e-38
-1.2816257 0.92665052 2.1670001 2.9520482e-39
1.0697744 -0.49194002 2.733 2.3417689e-38
1.1231287 -0.48281622 2.7110002 2.3417689e-38
0.079901911 0.88443148 2.8930001 2.3041677e-39
0.1194581 0.85843146 2.9170001 4.3317583e-39
-0.03371143 0.62987149 1.863 1.45644e-38
0.15704858 0.88443148 2.8930001 3.964052e-39
0.71759433 0.20694669 2.822 1.9541153e-38
0.72296959 0.20694669 2.822 1.9357481e-38
0.77134669 0.17469525 2.822 1.9358921e-38
-0.49311337 0.25190002 1.603 1.3549519e-38
0.33360955 -0.084127627 3.0460002 1.9450754e-38
-0.46459335 0.25272667 1.5890001 1.3640627e-38
0.38002479 -0.084127627 3.0460002 1.9359999e-38
-0.42234385 0.25221241 1.567 1.3826089e-38
0.42063811 -0.084127627 3.0460002 1.9451476e-38
0.42644003 -0.084127627 3.0460002 1.9542947e-38
0.48591527 -0.083381914 3.0190001 1.945148e-38
-0.18472669 0.25190002 1.603 9.6805313e-39
-0.16640668 0.23968668 1.603 5.9023882e-39
-1.3742772 0.79611719 2.4090002 6.2689735e-39
-1.3513343 0.77317435 2.4090002 5.3459242e-39
-0.87935817 -0.025914287 1.8140001 1.2536445e-38
0.32615525 0.37417811 2.1010001 3.041395e-39
-0.84480578 -0.039735239 1.8140001 1.2535016e-38
-0.0030914287 -0.33696574 3.2460001 2.1295031e-38
-0.80114865 -0.039121907 1.7860001 1.2718671e-38
0.0030914287 -0.33696574 3.2460001 2.1110996e-38
0.058194291 -0.33385146 3.2160001 2.0280885e-38
0.094948575 -0.33385146 3.2160001 1.9819542e-38
0.16233143 -0.30322286 3.2160001 1.9450394e-38
1.3094058 -0.1760343 2.5320001 2.2031879e-38
-1.0347534 0.67608672 1.8830001 1.1518322e-38
1.3238744 -0.2097943 2.5320001 2.2217712e-38
-0.059877146 0.3498086 3.3090003 7.1869305e-39
1.09578 0.48949814 2.6090002 2.8635758e-39
1.1206276 0.49446765 2.6090002 1.479568e-39
1.180262 0.4845286 2.6090002 1.6773858e-38
1.2100791 0.47458956 2.6090002 1.6774931e-38
1.2402544 0.49067718 2.5890002 1.6867126e-38
0.96045434 -0.42426574 2.733 2.2770883e-38
1.0125115 -0.43988287 2.733 2.304819e-38
1.0437458 -0.46070576 2.733 2.3141106e-38
1.0973096 -0.45699719 2.7110002 2.3233659e-38
1.1231287 -0.46216097 2.7110002 2.341769e-38
0.080564767 0.93066198 2.9170001 2.7630046e-39
0.091677152 0.92510575 2.9170001 3.7785859e-39
0.14602762 0.92851532 2.8930001 3.872571e-39
0.71759433 0.23382287 2.822 1.8804663e-38
0.7283448 0.23382287 2.822 1.8712109e-38
-0.040188573 0.29368573 3.2460001 4.519032e-39
-0.50227338 0.28243336 1.603 1.3550595e-38
0.32780764 -0.037712384 3.0460002 1.9727701e-38
-0.46459335 0.29510003 1.5890001 1.3918649e-38
0.38002479 -0.031910479 3.0460002 1.9451481e-38
-0.42234385 0.27907526 1.567 1.3550231e-38
0.40903431 -0.014504763 3.0460002 1.9727704e-38
0.46291336 -0.037378099 3.0190001 1.9727698e-38
0.46866384 -0.037378099 3.0190001 1.9635148e-38
-0.18472669 0.29464668 1.603 1.115315e-38
0.12060572 0.41717717 2.0760002 1.2903899e-39
0.15905334 0.42078671 2.1140001 1.0152407e-39
-1.410141 0.83150482 2.3920002 1.3547724e-38
0.28436574 0.41163433 2.0880001 1.9339572e-39
-0.88281339 0.036280002 1.8140001 1.290523e-38
0.30645716 0.38554287 2.0760002 2.4878429e-39
-0.84358484 0.0017180954 1.8040001 1.2903791e-38
-0.034005716 -0.29368573 3.2460001 2.1848929e-38
-0.80114865 0.0017009525 1.7860001 1.299491e-38
0.0030914287 -0.25658858 3.2460001 2.1571261e-38
0.058194291 -0.29097146 3.2160001 2.055783e-38
0.10107429 -0.2725943 3.2160001 2.0004654e-38
1.3094058 -0.16638859 2.5320001 2.2124077e-38
-1.0347534 0.69043338 1.8830001 1.0232287e-38
1.3190515 -0.16638859 2.5320001 2.1847134e-38
1.1355363 0.54416287 2.6090002 1.0892806e-38
1.180262 0.54913241 2.6090002 1.6772782e-38
1.190201 0.54416287 2.6090002 1.668452e-38
0.97086579 -0.40344289 2.733 2.2863078e-38
1.0125115 -0.41906002 2.733 2.2956712e-38
1.0541573 -0.41906002 2.733 2.3048183e-38
1.0973096 -0.42085052 2.7110002 2.3325134e-38
1.1282924 -0.39503145 2.7110002 2.3233299e-38
0.058340006 0.96955532 2.9170001 2.0282912e-39
0.086120956 0.93621814 2.9170001 2.7644424e-39
-0.03016286 0.71858579 1.863 1.4105564e-38
0.1515381 0.93402576 2.8930001 3.9644009e-39
0.71759433 0.28220001 2.822 1.8436608e-38
0.84072292 0.12754001 2.733 2.0280513e-38
0.88757432 0.13274573 2.733 1.3838746e-38
-0.053556193 0.58911812 1.8140001 1.484168e-38
0.2929962 0.0087028574 3.0460002 1.982026e-38
-0.50532669 0.32823336 1.603 1.4195233e-38
0.33360955 0.0029009525 3.0460002 1.9911378e-38
-0.46459335 0.31931335 1.5890001 1.4010856e-38
0.38002479 0.0029009525 3.0460002 1.9728064e-38
-0.42234385 0.30295336 1.567 1.3734625e-38
0.41483623 0.0029009525 3.0460002 1.94522e-38
0.46291336 0.0028752382 3.0190001 1.98199e-38
0.49741623 0.020126669 3.0190001 2.0002862e-38
-0.18167335 0.33739334 1.603 1.5763306e-38
1.1777753 0.84061718 2.3920002 9.2253083e-41
0.16710667 0.44494671 2.1140001 9.2270319e-40
0.21140002 0.46508002 2.1140001 1.1996516e-39
0.2167543 0.46333718 2.0880001 1.2932822e-39
-0.89317912 0.081198104 1.8140001 1.3271849e-38
0.26448002 0.44742861 2.0880001 8.2975927e-40
-0.88626862 0.081198104 1.8140001 1.3180374e-38
-0.84358484 0.084186673 1.8040001 1.3180735e-38
-0.015457144 -0.25040573 3.2460001 2.1756731e-38
-0.80114865 0.083346672 1.7860001 1.3639913e-38
0.0030914287 -0.23804002 3.2460001 2.1572696e-38
0.082697146 -0.24809144 3.2160001 2.0743645e-38
0.094948575 -0.24196573 3.2160001 2.0281955e-38
0.63420004 0.46508002 2.1140001 5.8142115e-39
0.6503067 0.46508002 2.1140001 5.7241823e-39
0.87982863 0.46462861 2.0760002 5.9993413e-39
-0.44228575 -0.46849528 3.4400001 2.341769e-38
1.180262 0.55410194 2.6090002 1.0426452e-38
-0.41607621 -0.49470478 3.4400001 2.341769e-38
1.1852314 0.55410194 2.6090002 1.02392e-38
-0.37676194 -0.49470478 3.4400001 2.341769e-38
-0.33744764 -0.49470478 3.4400001 2.341769e-38
-0.29158098 -0.49470478 3.4400001 2.341769e-38
0.97086579 -0.37741432 2.733 2.2771605e-38
1.0125115 -0.37741432 2.733 2.2956353e-38
1.0229229 -0.3722086 2.733 2.2955634e-38
1.07498 -0.34618002 2.733 2.3048909e-38
-0.48968574 0.19925144 3.5460002 4.1480705e-39
1.1282924 -0.37954003 2.7110002 2.304855e-38
-0.44916004 0.1722343 3.5460002 3.5016319e-39
0.063896194 0.99178004 2.9170001 1.8442741e-39
0.096433342 1.0111724 2.8930001 2.5814678e-39
0.70684385 0.32520193 2.822 1.8435879e-38
0.070047624 0.54637146 2.9420002 2.491433e-39
0.86154574 0.86675149 2.733 7.3702512e-39
0.25238287 0.084127627 3.0460002 2.0005008e-38
0.2929962 0.072523817 3.0460002 2.0096126e-38
-0.50532669 0.38014004 1.603 1.4472189e-38
0.33360955 0.060920004 3.0460002 1.9820261e-38
-0.46459335 0.3707667 1.5890001 1.4012644e-38
0.38002479 0.055118099 3.0460002 1.6884388e-38
0.40903431 0.049316194 3.0460002 1.5583638e-38
0.42644003 0.060920004 3.0460002 8.5811538e-39
0.49741623 0.043128572 3.0190001 2.0096126e-38
-0.17862001 0.38014004 1.603 1.6682015e-38
1.1907344 0.84659147 2.4090002 9.5840407e-41
0.16902858 0.4832229 2.0880001 1.2918641e-39
0.20334668 0.50534672 2.1140001 1.7506604e-39
-1.4339286 0.92918575 2.4090002 2.7604809e-39
0.21410193 0.49023336 2.1010001 2.5793393e-39
-1.3926315 0.92000866 2.4090002 3.5884381e-39
0.27243429 0.49913147 2.0880001 1.4754804e-39
-0.89663434 0.1261162 1.8140001 1.3455872e-38
-1.3509105 0.92262864 2.3920002 3.6809728e-39
-0.88626862 0.1261162 1.8140001 1.4006893e-38
-0.84358484 0.12198477 1.8040001 1.3272928e-38
-0.034005716 -0.20712572 3.2460001 2.1940761e-38
-0.80114865 0.1037581 1.7860001 1.3639195e-38
0.0030914287 -0.20712572 3.2460001 2.1662384e-38
0.082697146 -0.21133716 3.2160001 2.0741501e-38
0.094948575 -0.21133716 3.2160001 2.046491e-38
0.63420004 0.47716004 2.1140001 3.8791837e-39
0.6422534 0.47716004 2.1140001 4.6142348e-39
1.3094058 -0.084400006 2.5320001 2.1295393e-38
-1.0344087 0.79310578 1.863 3.4137634e-39
1.3190515 -0.084400006 2.5320001 2.1295034e-38
0.79344004 0.47924575 2.0880001 6.1826493e-39
0.8371886 0.47924575 2.0880001 5.9993441e-39
0.88378292 0.4685829 2.0760002 6.2755736e-39
0.92728007 0.48440003 2.0760002 6.7369105e-39
0.97046196 0.48222956 2.1010001 6.8287376e-39
1.0127068 0.48924002 2.1140001 6.7365588e-39
1.057 0.47716004 2.1140001 6.6436303e-39
-0.44228575 -0.45539051 3.4400001 2.341769e-38
1.0972668 0.4691067 2.1140001 6.5510829e-39
-0.41607621 -0.46194288 3.4400001 2.341769e-38
1.1012934 0.4691067 2.1140001 6.5514417e-39
-0.37676194 -0.46194288 3.4400001 2.341769e-38
-0.33744764 -0.46194288 3.4400001 2.341733e-38
-0.29158098 -0.46194288 3.4400001 2.3325494e-38
0.92922008 -0.32015145 2.733 2.2402462e-38
0.97086579 -0.33576858 2.733 2.2862713e-38
1.0125115 -0.33576858 2.733 2.2955273e-38
1.0281286 -0.32535717 2.733 2.2955993e-38
0.48645908 0.37895432 2.822 5.4402498e-39
1.0973096 -0.33822954 2.7110002 2.3141462e-38
-0.46942288 0.25328574 3.5460002 6.2699993e-39
1.1128011 -0.33822954 2.7110002 2.2956353e-38
-0.4626686 0.25328574 3.5460002 8.1254684e-39
0.079901911 1.0497458 2.8930001 2.0279255e-39
0.10194381 1.0497458 2.8930001 3.22684e-39
0.70146865 0.37357908 2.822 1.7882354e-38
-0.30235335 -0.27052668 1.5190001 1.1706325e-38
0.28906003 -0.46190003 3.1290002 1.6593057e-38
1.1332477 0.91785723 2.5700002 7.3863143e-40
0.70258576 1.0221934 2.8930001 4.6277321e-40
0.25238287 0.10733525 3.0460002 2.0188681e-38
-0.51143336 0.4228867 1.603 1.4748057e-38
0.28719431 0.095731437 3.0460002 2.0096842e-38
-0.50532669 0.4228867 1.603 1.4746983e-38
0.84200293 0.91542006 2.4090002 3.6842939e-40
-0.46526575 0.41708288 1.5810001 1.465622e-38
0.85118008 0.91542006 2.4090002 8.29039e-40
-0.42234385 0.38354194 1.567 1.4381064e-38
-0.18167335 0.4228867 1.603 1.5762562e-38
0.18321334 0.54561335 2.1140001 1.1045553e-39
-1.4018086 0.93377435 2.4090002 3.3139966e-39
0.2115543 0.54371434 2.0760002 1.1988949e-39
-1.3926315 0.93377435 2.4090002 3.4054678e-39
0.26296002 0.53976005 2.0760002 1.9339572e-39
-0.89317912 0.16066858 1.8140001 1.3364759e-38
-1.3509105 0.93629718 2.3920002 3.7717377e-39
-0.88626862 0.16757905 1.8140001 1.354843e-38
-0.84358484 0.16665524 1.8040001 1.3455884e-38
-0.021640001 -0.16384572 3.2460001 2.2033679e-38
-0.80049622 0.16754572 1.7770001 1.3455879e-38
0.0030628573 -0.16845715 3.2160001 2.1757447e-38
0.052068576 -0.16845715 3.2160001 2.1017372e-38
0.61809337 0.54964006 2.1140001 2.0283095e-39
1.3094058 -0.04099429 2.5320001 2.1018807e-38
1.3190515 -0.04099429 2.5320001 2.0741148e-38
-0.43573335 -0.40297145 3.4400001 2.341769e-38
-0.41607621 -0.42262861 3.4400001 2.341769e-38
-0.34400001 -0.42262861 3.4400001 2.3325494e-38
-0.33744764 -0.42262861 3.4400001 2.3325494e-38
0.97086579 -0.27850574 2.733 2.2494297e-38
1.0125115 -0.29412287 2.733 2.2771244e-38
1.0385401 -0.28891715 2.733 2.2863077e-38
0.48645908 0.38432956 2.822 5.4398757e-39
1.0973096 -0.29175526 2.7110002 2.2955993e-38
-0.48293146 0.26679429 3.5460002 5.4413316e-39
-0.4626686 0.26004001 3.5460002 3.7976954e-39
0.063370481 1.0607667 2.8930001 1.7520799e-39
-0.40188003 0.28705716 3.5460002 3.3186699e-39
0.67459244 0.42195621 2.822 1.7882352e-38
-0.37486288 0.29381144 3.5460002 3.5030738e-39
-0.29946002 -0.25027335 1.5190001 1.1247156e-38
-0.29367337 -0.25316668 1.5190001 1.1338999e-38
-0.25268859 -0.25268859 1.4990001 1.1432976e-38
0.5666886 0.97048295 2.4090002 7.8348069e-39
0.59458292 0.95907813 2.3920002 1.2885878e-39
0.65846002 0.96589434 2.4090002 3.2232401e-39
0.69922292 0.95718861 2.3760002 3.5037702e-39
0.25014573 0.12938572 3.0190001 2.0281592e-38
-0.52975339 0.46258003 1.603 1.46573e-38
-0.50532669 0.46258003 1.603 1.5299074e-38
-0.46526575 0.46526575 1.5810001 1.5850806e-38
0.48591527 0.15813811 3.0190001 9.2998896e-39
-0.17862001 0.46258003 1.603 1.5485996e-38
1.2005563 0.97274673 2.3920002 8.2904601e-40
0.078520007 0.58990669 2.1140001 1.3825827e-39
0.08657334 0.57782668 2.1140001 1.1981957e-39
0.14294668 0.58185339 2.1140001 1.1978271e-39
0.17113334 0.55366671 2.1140001 1.0137848e-39
0.2115543 0.56348574 2.0760002 1.6577207e-39
0.26448002 0.5826515 2.0880001 1.5683963e-39
-0.91736579 0.1986762 1.8140001 1.3364395e-38
-0.88626862 0.17794478 1.8140001 1.3916137e-38
-0.052554291 -0.089651436 3.2460001 2.1665257e-38
-0.84279531 0.21027145 1.7950001 1.3640643e-38
-0.021640001 -0.12674858 3.2460001 2.1849284e-38
-0.80049622 0.18446954 1.7770001 1.3365838e-38
0.0030628573 -0.12557715 3.2160001 2.1572698e-38
0.058194291 -0.12557715 3.2160001 2.1387225e-38
0.62614673 0.56574672 2.1140001 1.4762161e-39
0.63822669 0.56977338 2.1140001 1.292178e-39
1.3094058 0.0024114288 2.5320001 2.0464557e-38
1.3190515 0.0072342861 2.5320001 2.0372362e-38
-0.52746671 -0.37020954 3.4400001 1.7606124e-38
-0.43573335 -0.36365718 3.4400001 2.3325494e-38
-0.41607621 -0.37676194 3.4400001 2.3325494e-38
-0.34400001 -0.37676194 3.4400001 2.3233299e-38
-0.33744764 -0.37676194 3.4400001 2.3233299e-38
0.92922008 -0.23686002 2.733 2.240138e-38
0.97086579 -0.25247717 2.733 2.2585773e-38
-0.17541334 1.0091963 2.3920002 6.5261342e-39
1.0125115 -0.23686002 2.733 2.258649e-38
-0.16748287 1.01178 2.4090002 1.3044379e-39
1.0437458 -0.23686002 2.733 2.2770881e-38
0.50258482 0.4595829 2.822 1.1612326e-38
-0.12159715 1.01178 2.4090002 2.8577072e-39
1.0921458 -0.22462574 2.7110002 2.2678686e-38
-0.080300003 1.01178 2.4090002 2.4885772e-39
0.034171432 1.0137525 2.3920002 1.0159414e-39
0.67459244 0.46495813 2.822 1.7697241e-38
0.061945718 1.01178 2.4090002 1.5666068e-39
0.67996764 0.46495813 2.822 1.7605404e-38
0.25007716 1.0026029 2.4090002 7.7447888e-39
0.25742477 1.0091963 2.3920002 5.9026923e-39
0.30514002 0.99342579 2.4090002 1.2900326e-39
0.37855718 1.01178 2.4090002 1.0232644e-38
0.40150002 1.01178 2.4090002 1.1151351e-38
